0,1,2
-1.1291206262567173,1.5830452843318292,0.18310052866621085
-1.1291206262567173,1.5830452843318292,0.6630392982822026
-1.1291206262567173,1.5830452843318292,-0.28580522123799657
-1.1291206262567173,1.5830452843318292,-0.3873236707060878
-1.1291206262567173,1.5830452843318292,1.1762782213270029
-1.1291206262567173,1.5830452843318292,0.09653045653431508
-1.1291206262567173,1.5830452843318292,0.01381186248500532
-1.1291206262567173,1.5830452843318292,0.8371246583640104
-1.1291206262567173,0.18310052866621085,0.6630392982822026
-1.1291206262567173,0.18310052866621085,-0.28580522123799657
-1.1291206262567173,0.18310052866621085,-0.3873236707060878
-1.1291206262567173,0.18310052866621085,1.1762782213270029
-1.1291206262567173,0.18310052866621085,0.09653045653431508
-1.1291206262567173,0.18310052866621085,0.01381186248500532
-1.1291206262567173,0.18310052866621085,0.8371246583640104
-1.1291206262567173,0.6630392982822026,-0.28580522123799657
-1.1291206262567173,0.6630392982822026,-0.3873236707060878
-1.1291206262567173,0.6630392982822026,1.1762782213270029
-1.1291206262567173,0.6630392982822026,0.09653045653431508
-1.1291206262567173,0.6630392982822026,0.01381186248500532
-1.1291206262567173,0.6630392982822026,0.8371246583640104
-1.1291206262567173,-0.28580522123799657,0.01381186248500532
-1.1291206262567173,-0.28580522123799657,0.8371246583640104
-1.1291206262567173,-0.28580522123799657,-0.3873236707060878
-1.1291206262567173,-0.28580522123799657,1.1762782213270029
-1.1291206262567173,-0.28580522123799657,0.09653045653431508
-1.1291206262567173,-0.3873236707060878,0.01381186248500532
-1.1291206262567173,-0.3873236707060878,0.8371246583640104
-1.1291206262567173,-0.3873236707060878,1.1762782213270029
-1.1291206262567173,-0.3873236707060878,0.09653045653431508
-1.1291206262567173,1.1762782213270029,0.01381186248500532
-1.1291206262567173,1.1762782213270029,0.8371246583640104
-1.1291206262567173,1.1762782213270029,0.09653045653431508
-1.1291206262567173,0.09653045653431508,0.01381186248500532
-1.1291206262567173,0.09653045653431508,0.8371246583640104
-1.1291206262567173,0.01381186248500532,0.8371246583640104
1.5830452843318292,0.18310052866621085,0.6630392982822026
1.5830452843318292,0.18310052866621085,-0.28580522123799657
1.5830452843318292,0.18310052866621085,-0.3873236707060878
1.5830452843318292,0.18310052866621085,1.1762782213270029
1.5830452843318292,0.18310052866621085,0.09653045653431508
1.5830452843318292,0.18310052866621085,0.01381186248500532
1.5830452843318292,0.18310052866621085,0.8371246583640104
1.5830452843318292,0.6630392982822026,-0.28580522123799657
1.5830452843318292,0.6630392982822026,-0.3873236707060878
1.5830452843318292,0.6630392982822026,1.1762782213270029
1.5830452843318292,0.6630392982822026,0.09653045653431508
1.5830452843318292,0.6630392982822026,0.01381186248500532
1.5830452843318292,0.6630392982822026,0.8371246583640104
1.5830452843318292,-0.28580522123799657,0.01381186248500532
1.5830452843318292,-0.28580522123799657,0.8371246583640104
1.5830452843318292,-0.28580522123799657,-0.3873236707060878
1.5830452843318292,-0.28580522123799657,1.1762782213270029
1.5830452843318292,-0.28580522123799657,0.09653045653431508
1.5830452843318292,-0.3873236707060878,0.01381186248500532
1.5830452843318292,-0.3873236707060878,0.8371246583640104
1.5830452843318292,-0.3873236707060878,1.1762782213270029
1.5830452843318292,-0.3873236707060878,0.09653045653431508
1.5830452843318292,1.1762782213270029,0.01381186248500532
1.5830452843318292,1.1762782213270029,0.8371246583640104
1.5830452843318292,1.1762782213270029,0.09653045653431508
1.5830452843318292,0.09653045653431508,0.01381186248500532
1.5830452843318292,0.09653045653431508,0.8371246583640104
1.5830452843318292,0.01381186248500532,0.8371246583640104
0.18310052866621085,0.6630392982822026,-0.28580522123799657
0.18310052866621085,0.6630392982822026,-0.3873236707060878
0.18310052866621085,0.6630392982822026,1.1762782213270029
0.18310052866621085,0.6630392982822026,0.09653045653431508
0.18310052866621085,0.6630392982822026,0.01381186248500532
0.18310052866621085,0.6630392982822026,0.8371246583640104
0.18310052866621085,-0.28580522123799657,0.01381186248500532
0.18310052866621085,-0.28580522123799657,0.8371246583640104
0.18310052866621085,-0.28580522123799657,-0.3873236707060878
0.18310052866621085,-0.28580522123799657,1.1762782213270029
0.18310052866621085,-0.28580522123799657,0.09653045653431508
0.18310052866621085,-0.3873236707060878,0.01381186248500532
0.18310052866621085,-0.3873236707060878,0.8371246583640104
0.18310052866621085,-0.3873236707060878,1.1762782213270029
0.18310052866621085,-0.3873236707060878,0.09653045653431508
0.18310052866621085,1.1762782213270029,0.01381186248500532
0.18310052866621085,1.1762782213270029,0.8371246583640104
0.18310052866621085,1.1762782213270029,0.09653045653431508
0.18310052866621085,0.09653045653431508,0.01381186248500532
0.18310052866621085,0.09653045653431508,0.8371246583640104
0.18310052866621085,0.01381186248500532,0.8371246583640104
0.6630392982822026,-0.28580522123799657,0.01381186248500532
0.6630392982822026,-0.28580522123799657,0.8371246583640104
0.6630392982822026,-0.28580522123799657,-0.3873236707060878
0.6630392982822026,-0.28580522123799657,1.1762782213270029
0.6630392982822026,-0.28580522123799657,0.09653045653431508
0.6630392982822026,-0.3873236707060878,0.01381186248500532
0.6630392982822026,-0.3873236707060878,0.8371246583640104
0.6630392982822026,-0.3873236707060878,1.1762782213270029
0.6630392982822026,-0.3873236707060878,0.09653045653431508
0.6630392982822026,1.1762782213270029,0.01381186248500532
0.6630392982822026,1.1762782213270029,0.8371246583640104
0.6630392982822026,1.1762782213270029,0.09653045653431508
0.6630392982822026,0.09653045653431508,0.01381186248500532
0.6630392982822026,0.09653045653431508,0.8371246583640104
0.6630392982822026,0.01381186248500532,0.8371246583640104
-0.28580522123799657,0.01381186248500532,0.8371246583640104
-0.28580522123799657,-0.3873236707060878,0.01381186248500532
-0.28580522123799657,-0.3873236707060878,0.8371246583640104
-0.28580522123799657,-0.3873236707060878,1.1762782213270029
-0.28580522123799657,-0.3873236707060878,0.09653045653431508
-0.28580522123799657,1.1762782213270029,0.01381186248500532
-0.28580522123799657,1.1762782213270029,0.8371246583640104
-0.28580522123799657,1.1762782213270029,0.09653045653431508
-0.28580522123799657,0.09653045653431508,0.01381186248500532
-0.28580522123799657,0.09653045653431508,0.8371246583640104
-0.3873236707060878,0.01381186248500532,0.8371246583640104
-0.3873236707060878,1.1762782213270029,0.01381186248500532
-0.3873236707060878,1.1762782213270029,0.8371246583640104
-0.3873236707060878,1.1762782213270029,0.09653045653431508
-0.3873236707060878,0.09653045653431508,0.01381186248500532
-0.3873236707060878,0.09653045653431508,0.8371246583640104
1.1762782213270029,0.01381186248500532,0.8371246583640104
1.1762782213270029,0.09653045653431508,0.01381186248500532
1.1762782213270029,0.09653045653431508,0.8371246583640104
0.09653045653431508,0.01381186248500532,0.8371246583640104
