0,1,2
-1.8756492104989066,-0.35210481158317314,0.3156425680136638
-1.8756492104989066,-0.35210481158317314,0.5025874753181028
-1.8756492104989066,-0.35210481158317314,-0.29889764166493155
-1.8756492104989066,-0.35210481158317314,-0.6860535794137828
-1.8756492104989066,-0.35210481158317314,-0.04525755439561021
-1.8756492104989066,-0.35210481158317314,-2.3401420230996597
-1.8756492104989066,-0.35210481158317314,0.45892412774746655
-1.8756492104989066,-0.35210481158317314,-0.4608670104140578
-1.8756492104989066,0.3156425680136638,0.5025874753181028
-1.8756492104989066,0.3156425680136638,-0.29889764166493155
-1.8756492104989066,0.3156425680136638,-0.6860535794137828
-1.8756492104989066,0.3156425680136638,-0.04525755439561021
-1.8756492104989066,0.3156425680136638,-2.3401420230996597
-1.8756492104989066,0.3156425680136638,0.45892412774746655
-1.8756492104989066,0.3156425680136638,-0.4608670104140578
-1.8756492104989066,0.5025874753181028,-0.29889764166493155
-1.8756492104989066,0.5025874753181028,-0.6860535794137828
-1.8756492104989066,0.5025874753181028,-0.04525755439561021
-1.8756492104989066,0.5025874753181028,-2.3401420230996597
-1.8756492104989066,0.5025874753181028,0.45892412774746655
-1.8756492104989066,0.5025874753181028,-0.4608670104140578
-1.8756492104989066,-0.29889764166493155,0.45892412774746655
-1.8756492104989066,-0.29889764166493155,-0.4608670104140578
-1.8756492104989066,-0.29889764166493155,-0.6860535794137828
-1.8756492104989066,-0.29889764166493155,-0.04525755439561021
-1.8756492104989066,-0.29889764166493155,-2.3401420230996597
-1.8756492104989066,-0.6860535794137828,0.45892412774746655
-1.8756492104989066,-0.6860535794137828,-0.4608670104140578
-1.8756492104989066,-0.6860535794137828,-0.04525755439561021
-1.8756492104989066,-0.6860535794137828,-2.3401420230996597
-1.8756492104989066,-0.04525755439561021,0.45892412774746655
-1.8756492104989066,-0.04525755439561021,-0.4608670104140578
-1.8756492104989066,-0.04525755439561021,-2.3401420230996597
-1.8756492104989066,-2.3401420230996597,0.45892412774746655
-1.8756492104989066,-2.3401420230996597,-0.4608670104140578
-1.8756492104989066,0.45892412774746655,-0.4608670104140578
-0.35210481158317314,0.3156425680136638,0.5025874753181028
-0.35210481158317314,0.3156425680136638,-0.29889764166493155
-0.35210481158317314,0.3156425680136638,-0.6860535794137828
-0.35210481158317314,0.3156425680136638,-0.04525755439561021
-0.35210481158317314,0.3156425680136638,-2.3401420230996597
-0.35210481158317314,0.3156425680136638,0.45892412774746655
-0.35210481158317314,0.3156425680136638,-0.4608670104140578
-0.35210481158317314,0.5025874753181028,-0.29889764166493155
-0.35210481158317314,0.5025874753181028,-0.6860535794137828
-0.35210481158317314,0.5025874753181028,-0.04525755439561021
-0.35210481158317314,0.5025874753181028,-2.3401420230996597
-0.35210481158317314,0.5025874753181028,0.45892412774746655
-0.35210481158317314,0.5025874753181028,-0.4608670104140578
-0.35210481158317314,-0.29889764166493155,0.45892412774746655
-0.35210481158317314,-0.29889764166493155,-0.4608670104140578
-0.35210481158317314,-0.29889764166493155,-0.6860535794137828
-0.35210481158317314,-0.29889764166493155,-0.04525755439561021
-0.35210481158317314,-0.29889764166493155,-2.3401420230996597
-0.35210481158317314,-0.6860535794137828,0.45892412774746655
-0.35210481158317314,-0.6860535794137828,-0.4608670104140578
-0.35210481158317314,-0.6860535794137828,-0.04525755439561021
-0.35210481158317314,-0.6860535794137828,-2.3401420230996597
-0.35210481158317314,-0.04525755439561021,0.45892412774746655
-0.35210481158317314,-0.04525755439561021,-0.4608670104140578
-0.35210481158317314,-0.04525755439561021,-2.3401420230996597
-0.35210481158317314,-2.3401420230996597,0.45892412774746655
-0.35210481158317314,-2.3401420230996597,-0.4608670104140578
-0.35210481158317314,0.45892412774746655,-0.4608670104140578
0.3156425680136638,0.5025874753181028,-0.29889764166493155
0.3156425680136638,0.5025874753181028,-0.6860535794137828
0.3156425680136638,0.5025874753181028,-0.04525755439561021
0.3156425680136638,0.5025874753181028,-2.3401420230996597
0.3156425680136638,0.5025874753181028,0.45892412774746655
0.3156425680136638,0.5025874753181028,-0.4608670104140578
0.3156425680136638,-0.29889764166493155,0.45892412774746655
0.3156425680136638,-0.29889764166493155,-0.4608670104140578
0.3156425680136638,-0.29889764166493155,-0.6860535794137828
0.3156425680136638,-0.29889764166493155,-0.04525755439561021
0.3156425680136638,-0.29889764166493155,-2.3401420230996597
0.3156425680136638,-0.6860535794137828,0.45892412774746655
0.3156425680136638,-0.6860535794137828,-0.4608670104140578
0.3156425680136638,-0.6860535794137828,-0.04525755439561021
0.3156425680136638,-0.6860535794137828,-2.3401420230996597
0.3156425680136638,-0.04525755439561021,0.45892412774746655
0.3156425680136638,-0.04525755439561021,-0.4608670104140578
0.3156425680136638,-0.04525755439561021,-2.3401420230996597
0.3156425680136638,-2.3401420230996597,0.45892412774746655
0.3156425680136638,-2.3401420230996597,-0.4608670104140578
0.3156425680136638,0.45892412774746655,-0.4608670104140578
0.5025874753181028,-0.29889764166493155,0.45892412774746655
0.5025874753181028,-0.29889764166493155,-0.4608670104140578
0.5025874753181028,-0.29889764166493155,-0.6860535794137828
0.5025874753181028,-0.29889764166493155,-0.04525755439561021
0.5025874753181028,-0.29889764166493155,-2.3401420230996597
0.5025874753181028,-0.6860535794137828,0.45892412774746655
0.5025874753181028,-0.6860535794137828,-0.4608670104140578
0.5025874753181028,-0.6860535794137828,-0.04525755439561021
0.5025874753181028,-0.6860535794137828,-2.3401420230996597
0.5025874753181028,-0.04525755439561021,0.45892412774746655
0.5025874753181028,-0.04525755439561021,-0.4608670104140578
0.5025874753181028,-0.04525755439561021,-2.3401420230996597
0.5025874753181028,-2.3401420230996597,0.45892412774746655
0.5025874753181028,-2.3401420230996597,-0.4608670104140578
0.5025874753181028,0.45892412774746655,-0.4608670104140578
-0.29889764166493155,0.45892412774746655,-0.4608670104140578
-0.29889764166493155,-0.6860535794137828,0.45892412774746655
-0.29889764166493155,-0.6860535794137828,-0.4608670104140578
-0.29889764166493155,-0.6860535794137828,-0.04525755439561021
-0.29889764166493155,-0.6860535794137828,-2.3401420230996597
-0.29889764166493155,-0.04525755439561021,0.45892412774746655
-0.29889764166493155,-0.04525755439561021,-0.4608670104140578
-0.29889764166493155,-0.04525755439561021,-2.3401420230996597
-0.29889764166493155,-2.3401420230996597,0.45892412774746655
-0.29889764166493155,-2.3401420230996597,-0.4608670104140578
-0.6860535794137828,0.45892412774746655,-0.4608670104140578
-0.6860535794137828,-0.04525755439561021,0.45892412774746655
-0.6860535794137828,-0.04525755439561021,-0.4608670104140578
-0.6860535794137828,-0.04525755439561021,-2.3401420230996597
-0.6860535794137828,-2.3401420230996597,0.45892412774746655
-0.6860535794137828,-2.3401420230996597,-0.4608670104140578
-0.04525755439561021,0.45892412774746655,-0.4608670104140578
-0.04525755439561021,-2.3401420230996597,0.45892412774746655
-0.04525755439561021,-2.3401420230996597,-0.4608670104140578
-2.3401420230996597,0.45892412774746655,-0.4608670104140578
