0,1,2
0.7309533248836659,1.1974250085426765,1.4542735895678025
0.7309533248836659,1.1974250085426765,-0.27263521721971057
0.7309533248836659,1.1974250085426765,0.7999131123323788
0.7309533248836659,1.1974250085426765,-1.0107293104979997
0.7309533248836659,1.1974250085426765,2.4314130565921963
0.7309533248836659,1.1974250085426765,-1.101420188065322
0.7309533248836659,1.1974250085426765,0.25975166598108546
0.7309533248836659,1.1974250085426765,-1.973223601154214
0.7309533248836659,1.4542735895678025,-0.27263521721971057
0.7309533248836659,1.4542735895678025,0.7999131123323788
0.7309533248836659,1.4542735895678025,-1.0107293104979997
0.7309533248836659,1.4542735895678025,2.4314130565921963
0.7309533248836659,1.4542735895678025,-1.101420188065322
0.7309533248836659,1.4542735895678025,0.25975166598108546
0.7309533248836659,1.4542735895678025,-1.973223601154214
0.7309533248836659,-0.27263521721971057,0.7999131123323788
0.7309533248836659,-0.27263521721971057,-1.0107293104979997
0.7309533248836659,-0.27263521721971057,2.4314130565921963
0.7309533248836659,-0.27263521721971057,-1.101420188065322
0.7309533248836659,-0.27263521721971057,0.25975166598108546
0.7309533248836659,-0.27263521721971057,-1.973223601154214
0.7309533248836659,0.7999131123323788,0.25975166598108546
0.7309533248836659,0.7999131123323788,-1.973223601154214
0.7309533248836659,0.7999131123323788,-1.0107293104979997
0.7309533248836659,0.7999131123323788,2.4314130565921963
0.7309533248836659,0.7999131123323788,-1.101420188065322
0.7309533248836659,-1.0107293104979997,0.25975166598108546
0.7309533248836659,-1.0107293104979997,-1.973223601154214
0.7309533248836659,-1.0107293104979997,2.4314130565921963
0.7309533248836659,-1.0107293104979997,-1.101420188065322
0.7309533248836659,2.4314130565921963,0.25975166598108546
0.7309533248836659,2.4314130565921963,-1.973223601154214
0.7309533248836659,2.4314130565921963,-1.101420188065322
0.7309533248836659,-1.101420188065322,0.25975166598108546
0.7309533248836659,-1.101420188065322,-1.973223601154214
0.7309533248836659,0.25975166598108546,-1.973223601154214
1.1974250085426765,1.4542735895678025,-0.27263521721971057
1.1974250085426765,1.4542735895678025,0.7999131123323788
1.1974250085426765,1.4542735895678025,-1.0107293104979997
1.1974250085426765,1.4542735895678025,2.4314130565921963
1.1974250085426765,1.4542735895678025,-1.101420188065322
1.1974250085426765,1.4542735895678025,0.25975166598108546
1.1974250085426765,1.4542735895678025,-1.973223601154214
1.1974250085426765,-0.27263521721971057,0.7999131123323788
1.1974250085426765,-0.27263521721971057,-1.0107293104979997
1.1974250085426765,-0.27263521721971057,2.4314130565921963
1.1974250085426765,-0.27263521721971057,-1.101420188065322
1.1974250085426765,-0.27263521721971057,0.25975166598108546
1.1974250085426765,-0.27263521721971057,-1.973223601154214
1.1974250085426765,0.7999131123323788,0.25975166598108546
1.1974250085426765,0.7999131123323788,-1.973223601154214
1.1974250085426765,0.7999131123323788,-1.0107293104979997
1.1974250085426765,0.7999131123323788,2.4314130565921963
1.1974250085426765,0.7999131123323788,-1.101420188065322
1.1974250085426765,-1.0107293104979997,0.25975166598108546
1.1974250085426765,-1.0107293104979997,-1.973223601154214
1.1974250085426765,-1.0107293104979997,2.4314130565921963
1.1974250085426765,-1.0107293104979997,-1.101420188065322
1.1974250085426765,2.4314130565921963,0.25975166598108546
1.1974250085426765,2.4314130565921963,-1.973223601154214
1.1974250085426765,2.4314130565921963,-1.101420188065322
1.1974250085426765,-1.101420188065322,0.25975166598108546
1.1974250085426765,-1.101420188065322,-1.973223601154214
1.1974250085426765,0.25975166598108546,-1.973223601154214
1.4542735895678025,-0.27263521721971057,0.7999131123323788
1.4542735895678025,-0.27263521721971057,-1.0107293104979997
1.4542735895678025,-0.27263521721971057,2.4314130565921963
1.4542735895678025,-0.27263521721971057,-1.101420188065322
1.4542735895678025,-0.27263521721971057,0.25975166598108546
1.4542735895678025,-0.27263521721971057,-1.973223601154214
1.4542735895678025,0.7999131123323788,0.25975166598108546
1.4542735895678025,0.7999131123323788,-1.973223601154214
1.4542735895678025,0.7999131123323788,-1.0107293104979997
1.4542735895678025,0.7999131123323788,2.4314130565921963
1.4542735895678025,0.7999131123323788,-1.101420188065322
1.4542735895678025,-1.0107293104979997,0.25975166598108546
1.4542735895678025,-1.0107293104979997,-1.973223601154214
1.4542735895678025,-1.0107293104979997,2.4314130565921963
1.4542735895678025,-1.0107293104979997,-1.101420188065322
1.4542735895678025,2.4314130565921963,0.25975166598108546
1.4542735895678025,2.4314130565921963,-1.973223601154214
1.4542735895678025,2.4314130565921963,-1.101420188065322
1.4542735895678025,-1.101420188065322,0.25975166598108546
1.4542735895678025,-1.101420188065322,-1.973223601154214
1.4542735895678025,0.25975166598108546,-1.973223601154214
-0.27263521721971057,0.7999131123323788,0.25975166598108546
-0.27263521721971057,0.7999131123323788,-1.973223601154214
-0.27263521721971057,0.7999131123323788,-1.0107293104979997
-0.27263521721971057,0.7999131123323788,2.4314130565921963
-0.27263521721971057,0.7999131123323788,-1.101420188065322
-0.27263521721971057,-1.0107293104979997,0.25975166598108546
-0.27263521721971057,-1.0107293104979997,-1.973223601154214
-0.27263521721971057,-1.0107293104979997,2.4314130565921963
-0.27263521721971057,-1.0107293104979997,-1.101420188065322
-0.27263521721971057,2.4314130565921963,0.25975166598108546
-0.27263521721971057,2.4314130565921963,-1.973223601154214
-0.27263521721971057,2.4314130565921963,-1.101420188065322
-0.27263521721971057,-1.101420188065322,0.25975166598108546
-0.27263521721971057,-1.101420188065322,-1.973223601154214
-0.27263521721971057,0.25975166598108546,-1.973223601154214
0.7999131123323788,0.25975166598108546,-1.973223601154214
0.7999131123323788,-1.0107293104979997,0.25975166598108546
0.7999131123323788,-1.0107293104979997,-1.973223601154214
0.7999131123323788,-1.0107293104979997,2.4314130565921963
0.7999131123323788,-1.0107293104979997,-1.101420188065322
0.7999131123323788,2.4314130565921963,0.25975166598108546
0.7999131123323788,2.4314130565921963,-1.973223601154214
0.7999131123323788,2.4314130565921963,-1.101420188065322
0.7999131123323788,-1.101420188065322,0.25975166598108546
0.7999131123323788,-1.101420188065322,-1.973223601154214
-1.0107293104979997,0.25975166598108546,-1.973223601154214
-1.0107293104979997,2.4314130565921963,0.25975166598108546
-1.0107293104979997,2.4314130565921963,-1.973223601154214
-1.0107293104979997,2.4314130565921963,-1.101420188065322
-1.0107293104979997,-1.101420188065322,0.25975166598108546
-1.0107293104979997,-1.101420188065322,-1.973223601154214
2.4314130565921963,0.25975166598108546,-1.973223601154214
2.4314130565921963,-1.101420188065322,0.25975166598108546
2.4314130565921963,-1.101420188065322,-1.973223601154214
-1.101420188065322,0.25975166598108546,-1.973223601154214
