0,1,2
0.7516846183034243,-0.04385560367881022,2.1450809339264265
0.7516846183034243,-0.04385560367881022,-0.580812763142445
0.7516846183034243,-0.04385560367881022,2.1961931392547425
0.7516846183034243,-0.04385560367881022,-1.2346991278272947
0.7516846183034243,-0.04385560367881022,-0.8362978116349413
0.7516846183034243,-0.04385560367881022,0.08387433407386835
0.7516846183034243,-0.04385560367881022,0.25812622644993505
0.7516846183034243,-0.04385560367881022,0.27267978407293664
0.7516846183034243,2.1450809339264265,-0.580812763142445
0.7516846183034243,2.1450809339264265,2.1961931392547425
0.7516846183034243,2.1450809339264265,-1.2346991278272947
0.7516846183034243,2.1450809339264265,-0.8362978116349413
0.7516846183034243,2.1450809339264265,0.08387433407386835
0.7516846183034243,2.1450809339264265,0.25812622644993505
0.7516846183034243,2.1450809339264265,0.27267978407293664
0.7516846183034243,-0.580812763142445,2.1961931392547425
0.7516846183034243,-0.580812763142445,-1.2346991278272947
0.7516846183034243,-0.580812763142445,-0.8362978116349413
0.7516846183034243,-0.580812763142445,0.08387433407386835
0.7516846183034243,-0.580812763142445,0.25812622644993505
0.7516846183034243,-0.580812763142445,0.27267978407293664
0.7516846183034243,2.1961931392547425,0.25812622644993505
0.7516846183034243,2.1961931392547425,0.27267978407293664
0.7516846183034243,2.1961931392547425,-1.2346991278272947
0.7516846183034243,2.1961931392547425,-0.8362978116349413
0.7516846183034243,2.1961931392547425,0.08387433407386835
0.7516846183034243,-1.2346991278272947,0.25812622644993505
0.7516846183034243,-1.2346991278272947,0.27267978407293664
0.7516846183034243,-1.2346991278272947,-0.8362978116349413
0.7516846183034243,-1.2346991278272947,0.08387433407386835
0.7516846183034243,-0.8362978116349413,0.25812622644993505
0.7516846183034243,-0.8362978116349413,0.27267978407293664
0.7516846183034243,-0.8362978116349413,0.08387433407386835
0.7516846183034243,0.08387433407386835,0.25812622644993505
0.7516846183034243,0.08387433407386835,0.27267978407293664
0.7516846183034243,0.25812622644993505,0.27267978407293664
-0.04385560367881022,2.1450809339264265,-0.580812763142445
-0.04385560367881022,2.1450809339264265,2.1961931392547425
-0.04385560367881022,2.1450809339264265,-1.2346991278272947
-0.04385560367881022,2.1450809339264265,-0.8362978116349413
-0.04385560367881022,2.1450809339264265,0.08387433407386835
-0.04385560367881022,2.1450809339264265,0.25812622644993505
-0.04385560367881022,2.1450809339264265,0.27267978407293664
-0.04385560367881022,-0.580812763142445,2.1961931392547425
-0.04385560367881022,-0.580812763142445,-1.2346991278272947
-0.04385560367881022,-0.580812763142445,-0.8362978116349413
-0.04385560367881022,-0.580812763142445,0.08387433407386835
-0.04385560367881022,-0.580812763142445,0.25812622644993505
-0.04385560367881022,-0.580812763142445,0.27267978407293664
-0.04385560367881022,2.1961931392547425,0.25812622644993505
-0.04385560367881022,2.1961931392547425,0.27267978407293664
-0.04385560367881022,2.1961931392547425,-1.2346991278272947
-0.04385560367881022,2.1961931392547425,-0.8362978116349413
-0.04385560367881022,2.1961931392547425,0.08387433407386835
-0.04385560367881022,-1.2346991278272947,0.25812622644993505
-0.04385560367881022,-1.2346991278272947,0.27267978407293664
-0.04385560367881022,-1.2346991278272947,-0.8362978116349413
-0.04385560367881022,-1.2346991278272947,0.08387433407386835
-0.04385560367881022,-0.8362978116349413,0.25812622644993505
-0.04385560367881022,-0.8362978116349413,0.27267978407293664
-0.04385560367881022,-0.8362978116349413,0.08387433407386835
-0.04385560367881022,0.08387433407386835,0.25812622644993505
-0.04385560367881022,0.08387433407386835,0.27267978407293664
-0.04385560367881022,0.25812622644993505,0.27267978407293664
2.1450809339264265,-0.580812763142445,2.1961931392547425
2.1450809339264265,-0.580812763142445,-1.2346991278272947
2.1450809339264265,-0.580812763142445,-0.8362978116349413
2.1450809339264265,-0.580812763142445,0.08387433407386835
2.1450809339264265,-0.580812763142445,0.25812622644993505
2.1450809339264265,-0.580812763142445,0.27267978407293664
2.1450809339264265,2.1961931392547425,0.25812622644993505
2.1450809339264265,2.1961931392547425,0.27267978407293664
2.1450809339264265,2.1961931392547425,-1.2346991278272947
2.1450809339264265,2.1961931392547425,-0.8362978116349413
2.1450809339264265,2.1961931392547425,0.08387433407386835
2.1450809339264265,-1.2346991278272947,0.25812622644993505
2.1450809339264265,-1.2346991278272947,0.27267978407293664
2.1450809339264265,-1.2346991278272947,-0.8362978116349413
2.1450809339264265,-1.2346991278272947,0.08387433407386835
2.1450809339264265,-0.8362978116349413,0.25812622644993505
2.1450809339264265,-0.8362978116349413,0.27267978407293664
2.1450809339264265,-0.8362978116349413,0.08387433407386835
2.1450809339264265,0.08387433407386835,0.25812622644993505
2.1450809339264265,0.08387433407386835,0.27267978407293664
2.1450809339264265,0.25812622644993505,0.27267978407293664
-0.580812763142445,2.1961931392547425,0.25812622644993505
-0.580812763142445,2.1961931392547425,0.27267978407293664
-0.580812763142445,2.1961931392547425,-1.2346991278272947
-0.580812763142445,2.1961931392547425,-0.8362978116349413
-0.580812763142445,2.1961931392547425,0.08387433407386835
-0.580812763142445,-1.2346991278272947,0.25812622644993505
-0.580812763142445,-1.2346991278272947,0.27267978407293664
-0.580812763142445,-1.2346991278272947,-0.8362978116349413
-0.580812763142445,-1.2346991278272947,0.08387433407386835
-0.580812763142445,-0.8362978116349413,0.25812622644993505
-0.580812763142445,-0.8362978116349413,0.27267978407293664
-0.580812763142445,-0.8362978116349413,0.08387433407386835
-0.580812763142445,0.08387433407386835,0.25812622644993505
-0.580812763142445,0.08387433407386835,0.27267978407293664
-0.580812763142445,0.25812622644993505,0.27267978407293664
2.1961931392547425,0.25812622644993505,0.27267978407293664
2.1961931392547425,-1.2346991278272947,0.25812622644993505
2.1961931392547425,-1.2346991278272947,0.27267978407293664
2.1961931392547425,-1.2346991278272947,-0.8362978116349413
2.1961931392547425,-1.2346991278272947,0.08387433407386835
2.1961931392547425,-0.8362978116349413,0.25812622644993505
2.1961931392547425,-0.8362978116349413,0.27267978407293664
2.1961931392547425,-0.8362978116349413,0.08387433407386835
2.1961931392547425,0.08387433407386835,0.25812622644993505
2.1961931392547425,0.08387433407386835,0.27267978407293664
-1.2346991278272947,0.25812622644993505,0.27267978407293664
-1.2346991278272947,-0.8362978116349413,0.25812622644993505
-1.2346991278272947,-0.8362978116349413,0.27267978407293664
-1.2346991278272947,-0.8362978116349413,0.08387433407386835
-1.2346991278272947,0.08387433407386835,0.25812622644993505
-1.2346991278272947,0.08387433407386835,0.27267978407293664
-0.8362978116349413,0.25812622644993505,0.27267978407293664
-0.8362978116349413,0.08387433407386835,0.25812622644993505
-0.8362978116349413,0.08387433407386835,0.27267978407293664
0.08387433407386835,0.25812622644993505,0.27267978407293664
