0,1,2
-1.230659050901309,-1.4134889036431806,-2.3409252887628162
-1.230659050901309,-1.4134889036431806,1.485452645759807
-1.230659050901309,-1.4134889036431806,0.8544463544432405
-1.230659050901309,-1.4134889036431806,-0.2761303655042231
-1.230659050901309,-1.4134889036431806,-0.21595074000466224
-1.230659050901309,-1.4134889036431806,0.3501538154315469
-1.230659050901309,-1.4134889036431806,0.9376438083274471
-1.230659050901309,-1.4134889036431806,0.37726436424116033
-1.230659050901309,-2.3409252887628162,1.485452645759807
-1.230659050901309,-2.3409252887628162,0.8544463544432405
-1.230659050901309,-2.3409252887628162,-0.2761303655042231
-1.230659050901309,-2.3409252887628162,-0.21595074000466224
-1.230659050901309,-2.3409252887628162,0.3501538154315469
-1.230659050901309,-2.3409252887628162,0.9376438083274471
-1.230659050901309,-2.3409252887628162,0.37726436424116033
-1.230659050901309,1.485452645759807,0.8544463544432405
-1.230659050901309,1.485452645759807,-0.2761303655042231
-1.230659050901309,1.485452645759807,-0.21595074000466224
-1.230659050901309,1.485452645759807,0.3501538154315469
-1.230659050901309,1.485452645759807,0.9376438083274471
-1.230659050901309,1.485452645759807,0.37726436424116033
-1.230659050901309,0.8544463544432405,0.9376438083274471
-1.230659050901309,0.8544463544432405,0.37726436424116033
-1.230659050901309,0.8544463544432405,-0.2761303655042231
-1.230659050901309,0.8544463544432405,-0.21595074000466224
-1.230659050901309,0.8544463544432405,0.3501538154315469
-1.230659050901309,-0.2761303655042231,0.9376438083274471
-1.230659050901309,-0.2761303655042231,0.37726436424116033
-1.230659050901309,-0.2761303655042231,-0.21595074000466224
-1.230659050901309,-0.2761303655042231,0.3501538154315469
-1.230659050901309,-0.21595074000466224,0.9376438083274471
-1.230659050901309,-0.21595074000466224,0.37726436424116033
-1.230659050901309,-0.21595074000466224,0.3501538154315469
-1.230659050901309,0.3501538154315469,0.9376438083274471
-1.230659050901309,0.3501538154315469,0.37726436424116033
-1.230659050901309,0.9376438083274471,0.37726436424116033
-1.4134889036431806,-2.3409252887628162,1.485452645759807
-1.4134889036431806,-2.3409252887628162,0.8544463544432405
-1.4134889036431806,-2.3409252887628162,-0.2761303655042231
-1.4134889036431806,-2.3409252887628162,-0.21595074000466224
-1.4134889036431806,-2.3409252887628162,0.3501538154315469
-1.4134889036431806,-2.3409252887628162,0.9376438083274471
-1.4134889036431806,-2.3409252887628162,0.37726436424116033
-1.4134889036431806,1.485452645759807,0.8544463544432405
-1.4134889036431806,1.485452645759807,-0.2761303655042231
-1.4134889036431806,1.485452645759807,-0.21595074000466224
-1.4134889036431806,1.485452645759807,0.3501538154315469
-1.4134889036431806,1.485452645759807,0.9376438083274471
-1.4134889036431806,1.485452645759807,0.37726436424116033
-1.4134889036431806,0.8544463544432405,0.9376438083274471
-1.4134889036431806,0.8544463544432405,0.37726436424116033
-1.4134889036431806,0.8544463544432405,-0.2761303655042231
-1.4134889036431806,0.8544463544432405,-0.21595074000466224
-1.4134889036431806,0.8544463544432405,0.3501538154315469
-1.4134889036431806,-0.2761303655042231,0.9376438083274471
-1.4134889036431806,-0.2761303655042231,0.37726436424116033
-1.4134889036431806,-0.2761303655042231,-0.21595074000466224
-1.4134889036431806,-0.2761303655042231,0.3501538154315469
-1.4134889036431806,-0.21595074000466224,0.9376438083274471
-1.4134889036431806,-0.21595074000466224,0.37726436424116033
-1.4134889036431806,-0.21595074000466224,0.3501538154315469
-1.4134889036431806,0.3501538154315469,0.9376438083274471
-1.4134889036431806,0.3501538154315469,0.37726436424116033
-1.4134889036431806,0.9376438083274471,0.37726436424116033
-2.3409252887628162,1.485452645759807,0.8544463544432405
-2.3409252887628162,1.485452645759807,-0.2761303655042231
-2.3409252887628162,1.485452645759807,-0.21595074000466224
-2.3409252887628162,1.485452645759807,0.3501538154315469
-2.3409252887628162,1.485452645759807,0.9376438083274471
-2.3409252887628162,1.485452645759807,0.37726436424116033
-2.3409252887628162,0.8544463544432405,0.9376438083274471
-2.3409252887628162,0.8544463544432405,0.37726436424116033
-2.3409252887628162,0.8544463544432405,-0.2761303655042231
-2.3409252887628162,0.8544463544432405,-0.21595074000466224
-2.3409252887628162,0.8544463544432405,0.3501538154315469
-2.3409252887628162,-0.2761303655042231,0.9376438083274471
-2.3409252887628162,-0.2761303655042231,0.37726436424116033
-2.3409252887628162,-0.2761303655042231,-0.21595074000466224
-2.3409252887628162,-0.2761303655042231,0.3501538154315469
-2.3409252887628162,-0.21595074000466224,0.9376438083274471
-2.3409252887628162,-0.21595074000466224,0.37726436424116033
-2.3409252887628162,-0.21595074000466224,0.3501538154315469
-2.3409252887628162,0.3501538154315469,0.9376438083274471
-2.3409252887628162,0.3501538154315469,0.37726436424116033
-2.3409252887628162,0.9376438083274471,0.37726436424116033
1.485452645759807,0.8544463544432405,0.9376438083274471
1.485452645759807,0.8544463544432405,0.37726436424116033
1.485452645759807,0.8544463544432405,-0.2761303655042231
1.485452645759807,0.8544463544432405,-0.21595074000466224
1.485452645759807,0.8544463544432405,0.3501538154315469
1.485452645759807,-0.2761303655042231,0.9376438083274471
1.485452645759807,-0.2761303655042231,0.37726436424116033
1.485452645759807,-0.2761303655042231,-0.21595074000466224
1.485452645759807,-0.2761303655042231,0.3501538154315469
1.485452645759807,-0.21595074000466224,0.9376438083274471
1.485452645759807,-0.21595074000466224,0.37726436424116033
1.485452645759807,-0.21595074000466224,0.3501538154315469
1.485452645759807,0.3501538154315469,0.9376438083274471
1.485452645759807,0.3501538154315469,0.37726436424116033
1.485452645759807,0.9376438083274471,0.37726436424116033
0.8544463544432405,0.9376438083274471,0.37726436424116033
0.8544463544432405,-0.2761303655042231,0.9376438083274471
0.8544463544432405,-0.2761303655042231,0.37726436424116033
0.8544463544432405,-0.2761303655042231,-0.21595074000466224
0.8544463544432405,-0.2761303655042231,0.3501538154315469
0.8544463544432405,-0.21595074000466224,0.9376438083274471
0.8544463544432405,-0.21595074000466224,0.37726436424116033
0.8544463544432405,-0.21595074000466224,0.3501538154315469
0.8544463544432405,0.3501538154315469,0.9376438083274471
0.8544463544432405,0.3501538154315469,0.37726436424116033
-0.2761303655042231,0.9376438083274471,0.37726436424116033
-0.2761303655042231,-0.21595074000466224,0.9376438083274471
-0.2761303655042231,-0.21595074000466224,0.37726436424116033
-0.2761303655042231,-0.21595074000466224,0.3501538154315469
-0.2761303655042231,0.3501538154315469,0.9376438083274471
-0.2761303655042231,0.3501538154315469,0.37726436424116033
-0.21595074000466224,0.9376438083274471,0.37726436424116033
-0.21595074000466224,0.3501538154315469,0.9376438083274471
-0.21595074000466224,0.3501538154315469,0.37726436424116033
0.3501538154315469,0.9376438083274471,0.37726436424116033
