0,1,2
-0.2617786547144556,-0.21923424985973072,-0.530574297394009
-0.2617786547144556,-0.21923424985973072,0.2751315436267582
-0.2617786547144556,-0.21923424985973072,-0.4172119865351522
-0.2617786547144556,-0.21923424985973072,0.7641361386043775
-0.2617786547144556,-0.21923424985973072,-2.216431311717659
-0.2617786547144556,-0.21923424985973072,-0.09835199276592542
-0.2617786547144556,-0.21923424985973072,0.8226760871415252
-0.2617786547144556,-0.21923424985973072,-1.383453722103416
-0.2617786547144556,-0.530574297394009,0.2751315436267582
-0.2617786547144556,-0.530574297394009,-0.4172119865351522
-0.2617786547144556,-0.530574297394009,0.7641361386043775
-0.2617786547144556,-0.530574297394009,-2.216431311717659
-0.2617786547144556,-0.530574297394009,-0.09835199276592542
-0.2617786547144556,-0.530574297394009,0.8226760871415252
-0.2617786547144556,-0.530574297394009,-1.383453722103416
-0.2617786547144556,0.2751315436267582,-0.4172119865351522
-0.2617786547144556,0.2751315436267582,0.7641361386043775
-0.2617786547144556,0.2751315436267582,-2.216431311717659
-0.2617786547144556,0.2751315436267582,-0.09835199276592542
-0.2617786547144556,0.2751315436267582,0.8226760871415252
-0.2617786547144556,0.2751315436267582,-1.383453722103416
-0.2617786547144556,-0.4172119865351522,0.8226760871415252
-0.2617786547144556,-0.4172119865351522,-1.383453722103416
-0.2617786547144556,-0.4172119865351522,0.7641361386043775
-0.2617786547144556,-0.4172119865351522,-2.216431311717659
-0.2617786547144556,-0.4172119865351522,-0.09835199276592542
-0.2617786547144556,0.7641361386043775,0.8226760871415252
-0.2617786547144556,0.7641361386043775,-1.383453722103416
-0.2617786547144556,0.7641361386043775,-2.216431311717659
-0.2617786547144556,0.7641361386043775,-0.09835199276592542
-0.2617786547144556,-2.216431311717659,0.8226760871415252
-0.2617786547144556,-2.216431311717659,-1.383453722103416
-0.2617786547144556,-2.216431311717659,-0.09835199276592542
-0.2617786547144556,-0.09835199276592542,0.8226760871415252
-0.2617786547144556,-0.09835199276592542,-1.383453722103416
-0.2617786547144556,0.8226760871415252,-1.383453722103416
-0.21923424985973072,-0.530574297394009,0.2751315436267582
-0.21923424985973072,-0.530574297394009,-0.4172119865351522
-0.21923424985973072,-0.530574297394009,0.7641361386043775
-0.21923424985973072,-0.530574297394009,-2.216431311717659
-0.21923424985973072,-0.530574297394009,-0.09835199276592542
-0.21923424985973072,-0.530574297394009,0.8226760871415252
-0.21923424985973072,-0.530574297394009,-1.383453722103416
-0.21923424985973072,0.2751315436267582,-0.4172119865351522
-0.21923424985973072,0.2751315436267582,0.7641361386043775
-0.21923424985973072,0.2751315436267582,-2.216431311717659
-0.21923424985973072,0.2751315436267582,-0.09835199276592542
-0.21923424985973072,0.2751315436267582,0.8226760871415252
-0.21923424985973072,0.2751315436267582,-1.383453722103416
-0.21923424985973072,-0.4172119865351522,0.8226760871415252
-0.21923424985973072,-0.4172119865351522,-1.383453722103416
-0.21923424985973072,-0.4172119865351522,0.7641361386043775
-0.21923424985973072,-0.4172119865351522,-2.216431311717659
-0.21923424985973072,-0.4172119865351522,-0.09835199276592542
-0.21923424985973072,0.7641361386043775,0.8226760871415252
-0.21923424985973072,0.7641361386043775,-1.383453722103416
-0.21923424985973072,0.7641361386043775,-2.216431311717659
-0.21923424985973072,0.7641361386043775,-0.09835199276592542
-0.21923424985973072,-2.216431311717659,0.8226760871415252
-0.21923424985973072,-2.216431311717659,-1.383453722103416
-0.21923424985973072,-2.216431311717659,-0.09835199276592542
-0.21923424985973072,-0.09835199276592542,0.8226760871415252
-0.21923424985973072,-0.09835199276592542,-1.383453722103416
-0.21923424985973072,0.8226760871415252,-1.383453722103416
-0.530574297394009,0.2751315436267582,-0.4172119865351522
-0.530574297394009,0.2751315436267582,0.7641361386043775
-0.530574297394009,0.2751315436267582,-2.216431311717659
-0.530574297394009,0.2751315436267582,-0.09835199276592542
-0.530574297394009,0.2751315436267582,0.8226760871415252
-0.530574297394009,0.2751315436267582,-1.383453722103416
-0.530574297394009,-0.4172119865351522,0.8226760871415252
-0.530574297394009,-0.4172119865351522,-1.383453722103416
-0.530574297394009,-0.4172119865351522,0.7641361386043775
-0.530574297394009,-0.4172119865351522,-2.216431311717659
-0.530574297394009,-0.4172119865351522,-0.09835199276592542
-0.530574297394009,0.7641361386043775,0.8226760871415252
-0.530574297394009,0.7641361386043775,-1.383453722103416
-0.530574297394009,0.7641361386043775,-2.216431311717659
-0.530574297394009,0.7641361386043775,-0.09835199276592542
-0.530574297394009,-2.216431311717659,0.8226760871415252
-0.530574297394009,-2.216431311717659,-1.383453722103416
-0.530574297394009,-2.216431311717659,-0.09835199276592542
-0.530574297394009,-0.09835199276592542,0.8226760871415252
-0.530574297394009,-0.09835199276592542,-1.383453722103416
-0.530574297394009,0.8226760871415252,-1.383453722103416
0.2751315436267582,-0.4172119865351522,0.8226760871415252
0.2751315436267582,-0.4172119865351522,-1.383453722103416
0.2751315436267582,-0.4172119865351522,0.7641361386043775
0.2751315436267582,-0.4172119865351522,-2.216431311717659
0.2751315436267582,-0.4172119865351522,-0.09835199276592542
0.2751315436267582,0.7641361386043775,0.8226760871415252
0.2751315436267582,0.7641361386043775,-1.383453722103416
0.2751315436267582,0.7641361386043775,-2.216431311717659
0.2751315436267582,0.7641361386043775,-0.09835199276592542
0.2751315436267582,-2.216431311717659,0.8226760871415252
0.2751315436267582,-2.216431311717659,-1.383453722103416
0.2751315436267582,-2.216431311717659,-0.09835199276592542
0.2751315436267582,-0.09835199276592542,0.8226760871415252
0.2751315436267582,-0.09835199276592542,-1.383453722103416
0.2751315436267582,0.8226760871415252,-1.383453722103416
-0.4172119865351522,0.8226760871415252,-1.383453722103416
-0.4172119865351522,0.7641361386043775,0.8226760871415252
-0.4172119865351522,0.7641361386043775,-1.383453722103416
-0.4172119865351522,0.7641361386043775,-2.216431311717659
-0.4172119865351522,0.7641361386043775,-0.09835199276592542
-0.4172119865351522,-2.216431311717659,0.8226760871415252
-0.4172119865351522,-2.216431311717659,-1.383453722103416
-0.4172119865351522,-2.216431311717659,-0.09835199276592542
-0.4172119865351522,-0.09835199276592542,0.8226760871415252
-0.4172119865351522,-0.09835199276592542,-1.383453722103416
0.7641361386043775,0.8226760871415252,-1.383453722103416
0.7641361386043775,-2.216431311717659,0.8226760871415252
0.7641361386043775,-2.216431311717659,-1.383453722103416
0.7641361386043775,-2.216431311717659,-0.09835199276592542
0.7641361386043775,-0.09835199276592542,0.8226760871415252
0.7641361386043775,-0.09835199276592542,-1.383453722103416
-2.216431311717659,0.8226760871415252,-1.383453722103416
-2.216431311717659,-0.09835199276592542,0.8226760871415252
-2.216431311717659,-0.09835199276592542,-1.383453722103416
-0.09835199276592542,0.8226760871415252,-1.383453722103416
