0,1,2
-1.0998804680070051,-1.7690033776446539,-1.3181470050612765
-1.0998804680070051,-1.7690033776446539,-0.6934698612417791
-1.0998804680070051,-1.7690033776446539,0.2563222437900242
-1.0998804680070051,-1.7690033776446539,2.2100094538541533
-1.0998804680070051,-1.7690033776446539,0.19766987060957428
-1.0998804680070051,-1.7690033776446539,0.614294215290852
-1.0998804680070051,-1.7690033776446539,1.0200802984598798
-1.0998804680070051,-1.7690033776446539,0.04693188487820558
-1.0998804680070051,-1.3181470050612765,-0.6934698612417791
-1.0998804680070051,-1.3181470050612765,0.2563222437900242
-1.0998804680070051,-1.3181470050612765,2.2100094538541533
-1.0998804680070051,-1.3181470050612765,0.19766987060957428
-1.0998804680070051,-1.3181470050612765,0.614294215290852
-1.0998804680070051,-1.3181470050612765,1.0200802984598798
-1.0998804680070051,-1.3181470050612765,0.04693188487820558
-1.0998804680070051,-0.6934698612417791,0.2563222437900242
-1.0998804680070051,-0.6934698612417791,2.2100094538541533
-1.0998804680070051,-0.6934698612417791,0.19766987060957428
-1.0998804680070051,-0.6934698612417791,0.614294215290852
-1.0998804680070051,-0.6934698612417791,1.0200802984598798
-1.0998804680070051,-0.6934698612417791,0.04693188487820558
-1.0998804680070051,0.2563222437900242,1.0200802984598798
-1.0998804680070051,0.2563222437900242,0.04693188487820558
-1.0998804680070051,0.2563222437900242,2.2100094538541533
-1.0998804680070051,0.2563222437900242,0.19766987060957428
-1.0998804680070051,0.2563222437900242,0.614294215290852
-1.0998804680070051,2.2100094538541533,1.0200802984598798
-1.0998804680070051,2.2100094538541533,0.04693188487820558
-1.0998804680070051,2.2100094538541533,0.19766987060957428
-1.0998804680070051,2.2100094538541533,0.614294215290852
-1.0998804680070051,0.19766987060957428,1.0200802984598798
-1.0998804680070051,0.19766987060957428,0.04693188487820558
-1.0998804680070051,0.19766987060957428,0.614294215290852
-1.0998804680070051,0.614294215290852,1.0200802984598798
-1.0998804680070051,0.614294215290852,0.04693188487820558
-1.0998804680070051,1.0200802984598798,0.04693188487820558
-1.7690033776446539,-1.3181470050612765,-0.6934698612417791
-1.7690033776446539,-1.3181470050612765,0.2563222437900242
-1.7690033776446539,-1.3181470050612765,2.2100094538541533
-1.7690033776446539,-1.3181470050612765,0.19766987060957428
-1.7690033776446539,-1.3181470050612765,0.614294215290852
-1.7690033776446539,-1.3181470050612765,1.0200802984598798
-1.7690033776446539,-1.3181470050612765,0.04693188487820558
-1.7690033776446539,-0.6934698612417791,0.2563222437900242
-1.7690033776446539,-0.6934698612417791,2.2100094538541533
-1.7690033776446539,-0.6934698612417791,0.19766987060957428
-1.7690033776446539,-0.6934698612417791,0.614294215290852
-1.7690033776446539,-0.6934698612417791,1.0200802984598798
-1.7690033776446539,-0.6934698612417791,0.04693188487820558
-1.7690033776446539,0.2563222437900242,1.0200802984598798
-1.7690033776446539,0.2563222437900242,0.04693188487820558
-1.7690033776446539,0.2563222437900242,2.2100094538541533
-1.7690033776446539,0.2563222437900242,0.19766987060957428
-1.7690033776446539,0.2563222437900242,0.614294215290852
-1.7690033776446539,2.2100094538541533,1.0200802984598798
-1.7690033776446539,2.2100094538541533,0.04693188487820558
-1.7690033776446539,2.2100094538541533,0.19766987060957428
-1.7690033776446539,2.2100094538541533,0.614294215290852
-1.7690033776446539,0.19766987060957428,1.0200802984598798
-1.7690033776446539,0.19766987060957428,0.04693188487820558
-1.7690033776446539,0.19766987060957428,0.614294215290852
-1.7690033776446539,0.614294215290852,1.0200802984598798
-1.7690033776446539,0.614294215290852,0.04693188487820558
-1.7690033776446539,1.0200802984598798,0.04693188487820558
-1.3181470050612765,-0.6934698612417791,0.2563222437900242
-1.3181470050612765,-0.6934698612417791,2.2100094538541533
-1.3181470050612765,-0.6934698612417791,0.19766987060957428
-1.3181470050612765,-0.6934698612417791,0.614294215290852
-1.3181470050612765,-0.6934698612417791,1.0200802984598798
-1.3181470050612765,-0.6934698612417791,0.04693188487820558
-1.3181470050612765,0.2563222437900242,1.0200802984598798
-1.3181470050612765,0.2563222437900242,0.04693188487820558
-1.3181470050612765,0.2563222437900242,2.2100094538541533
-1.3181470050612765,0.2563222437900242,0.19766987060957428
-1.3181470050612765,0.2563222437900242,0.614294215290852
-1.3181470050612765,2.2100094538541533,1.0200802984598798
-1.3181470050612765,2.2100094538541533,0.04693188487820558
-1.3181470050612765,2.2100094538541533,0.19766987060957428
-1.3181470050612765,2.2100094538541533,0.614294215290852
-1.3181470050612765,0.19766987060957428,1.0200802984598798
-1.3181470050612765,0.19766987060957428,0.04693188487820558
-1.3181470050612765,0.19766987060957428,0.614294215290852
-1.3181470050612765,0.614294215290852,1.0200802984598798
-1.3181470050612765,0.614294215290852,0.04693188487820558
-1.3181470050612765,1.0200802984598798,0.04693188487820558
-0.6934698612417791,0.2563222437900242,1.0200802984598798
-0.6934698612417791,0.2563222437900242,0.04693188487820558
-0.6934698612417791,0.2563222437900242,2.2100094538541533
-0.6934698612417791,0.2563222437900242,0.19766987060957428
-0.6934698612417791,0.2563222437900242,0.614294215290852
-0.6934698612417791,2.2100094538541533,1.0200802984598798
-0.6934698612417791,2.2100094538541533,0.04693188487820558
-0.6934698612417791,2.2100094538541533,0.19766987060957428
-0.6934698612417791,2.2100094538541533,0.614294215290852
-0.6934698612417791,0.19766987060957428,1.0200802984598798
-0.6934698612417791,0.19766987060957428,0.04693188487820558
-0.6934698612417791,0.19766987060957428,0.614294215290852
-0.6934698612417791,0.614294215290852,1.0200802984598798
-0.6934698612417791,0.614294215290852,0.04693188487820558
-0.6934698612417791,1.0200802984598798,0.04693188487820558
0.2563222437900242,1.0200802984598798,0.04693188487820558
0.2563222437900242,2.2100094538541533,1.0200802984598798
0.2563222437900242,2.2100094538541533,0.04693188487820558
0.2563222437900242,2.2100094538541533,0.19766987060957428
0.2563222437900242,2.2100094538541533,0.614294215290852
0.2563222437900242,0.19766987060957428,1.0200802984598798
0.2563222437900242,0.19766987060957428,0.04693188487820558
0.2563222437900242,0.19766987060957428,0.614294215290852
0.2563222437900242,0.614294215290852,1.0200802984598798
0.2563222437900242,0.614294215290852,0.04693188487820558
2.2100094538541533,1.0200802984598798,0.04693188487820558
2.2100094538541533,0.19766987060957428,1.0200802984598798
2.2100094538541533,0.19766987060957428,0.04693188487820558
2.2100094538541533,0.19766987060957428,0.614294215290852
2.2100094538541533,0.614294215290852,1.0200802984598798
2.2100094538541533,0.614294215290852,0.04693188487820558
0.19766987060957428,1.0200802984598798,0.04693188487820558
0.19766987060957428,0.614294215290852,1.0200802984598798
0.19766987060957428,0.614294215290852,0.04693188487820558
0.614294215290852,1.0200802984598798,0.04693188487820558
