0,1,2
-0.4652808698823248,-0.21049726048661874,2.2108857363466368
-0.4652808698823248,-0.21049726048661874,1.8089638710366267
-0.4652808698823248,-0.21049726048661874,0.08678786945166332
-0.4652808698823248,-0.21049726048661874,-1.1434328777568594
-0.4652808698823248,-0.21049726048661874,-0.13138393869095338
-0.4652808698823248,-0.21049726048661874,0.9109313284022836
-0.4652808698823248,-0.21049726048661874,-0.24444766291080278
-0.4652808698823248,-0.21049726048661874,-0.6598046473051649
-0.4652808698823248,2.2108857363466368,1.8089638710366267
-0.4652808698823248,2.2108857363466368,0.08678786945166332
-0.4652808698823248,2.2108857363466368,-1.1434328777568594
-0.4652808698823248,2.2108857363466368,-0.13138393869095338
-0.4652808698823248,2.2108857363466368,0.9109313284022836
-0.4652808698823248,2.2108857363466368,-0.24444766291080278
-0.4652808698823248,2.2108857363466368,-0.6598046473051649
-0.4652808698823248,1.8089638710366267,0.08678786945166332
-0.4652808698823248,1.8089638710366267,-1.1434328777568594
-0.4652808698823248,1.8089638710366267,-0.13138393869095338
-0.4652808698823248,1.8089638710366267,0.9109313284022836
-0.4652808698823248,1.8089638710366267,-0.24444766291080278
-0.4652808698823248,1.8089638710366267,-0.6598046473051649
-0.4652808698823248,0.08678786945166332,-0.24444766291080278
-0.4652808698823248,0.08678786945166332,-0.6598046473051649
-0.4652808698823248,0.08678786945166332,-1.1434328777568594
-0.4652808698823248,0.08678786945166332,-0.13138393869095338
-0.4652808698823248,0.08678786945166332,0.9109313284022836
-0.4652808698823248,-1.1434328777568594,-0.24444766291080278
-0.4652808698823248,-1.1434328777568594,-0.6598046473051649
-0.4652808698823248,-1.1434328777568594,-0.13138393869095338
-0.4652808698823248,-1.1434328777568594,0.9109313284022836
-0.4652808698823248,-0.13138393869095338,-0.24444766291080278
-0.4652808698823248,-0.13138393869095338,-0.6598046473051649
-0.4652808698823248,-0.13138393869095338,0.9109313284022836
-0.4652808698823248,0.9109313284022836,-0.24444766291080278
-0.4652808698823248,0.9109313284022836,-0.6598046473051649
-0.4652808698823248,-0.24444766291080278,-0.6598046473051649
-0.21049726048661874,2.2108857363466368,1.8089638710366267
-0.21049726048661874,2.2108857363466368,0.08678786945166332
-0.21049726048661874,2.2108857363466368,-1.1434328777568594
-0.21049726048661874,2.2108857363466368,-0.13138393869095338
-0.21049726048661874,2.2108857363466368,0.9109313284022836
-0.21049726048661874,2.2108857363466368,-0.24444766291080278
-0.21049726048661874,2.2108857363466368,-0.6598046473051649
-0.21049726048661874,1.8089638710366267,0.08678786945166332
-0.21049726048661874,1.8089638710366267,-1.1434328777568594
-0.21049726048661874,1.8089638710366267,-0.13138393869095338
-0.21049726048661874,1.8089638710366267,0.9109313284022836
-0.21049726048661874,1.8089638710366267,-0.24444766291080278
-0.21049726048661874,1.8089638710366267,-0.6598046473051649
-0.21049726048661874,0.08678786945166332,-0.24444766291080278
-0.21049726048661874,0.08678786945166332,-0.6598046473051649
-0.21049726048661874,0.08678786945166332,-1.1434328777568594
-0.21049726048661874,0.08678786945166332,-0.13138393869095338
-0.21049726048661874,0.08678786945166332,0.9109313284022836
-0.21049726048661874,-1.1434328777568594,-0.24444766291080278
-0.21049726048661874,-1.1434328777568594,-0.6598046473051649
-0.21049726048661874,-1.1434328777568594,-0.13138393869095338
-0.21049726048661874,-1.1434328777568594,0.9109313284022836
-0.21049726048661874,-0.13138393869095338,-0.24444766291080278
-0.21049726048661874,-0.13138393869095338,-0.6598046473051649
-0.21049726048661874,-0.13138393869095338,0.9109313284022836
-0.21049726048661874,0.9109313284022836,-0.24444766291080278
-0.21049726048661874,0.9109313284022836,-0.6598046473051649
-0.21049726048661874,-0.24444766291080278,-0.6598046473051649
2.2108857363466368,1.8089638710366267,0.08678786945166332
2.2108857363466368,1.8089638710366267,-1.1434328777568594
2.2108857363466368,1.8089638710366267,-0.13138393869095338
2.2108857363466368,1.8089638710366267,0.9109313284022836
2.2108857363466368,1.8089638710366267,-0.24444766291080278
2.2108857363466368,1.8089638710366267,-0.6598046473051649
2.2108857363466368,0.08678786945166332,-0.24444766291080278
2.2108857363466368,0.08678786945166332,-0.6598046473051649
2.2108857363466368,0.08678786945166332,-1.1434328777568594
2.2108857363466368,0.08678786945166332,-0.13138393869095338
2.2108857363466368,0.08678786945166332,0.9109313284022836
2.2108857363466368,-1.1434328777568594,-0.24444766291080278
2.2108857363466368,-1.1434328777568594,-0.6598046473051649
2.2108857363466368,-1.1434328777568594,-0.13138393869095338
2.2108857363466368,-1.1434328777568594,0.9109313284022836
2.2108857363466368,-0.13138393869095338,-0.24444766291080278
2.2108857363466368,-0.13138393869095338,-0.6598046473051649
2.2108857363466368,-0.13138393869095338,0.9109313284022836
2.2108857363466368,0.9109313284022836,-0.24444766291080278
2.2108857363466368,0.9109313284022836,-0.6598046473051649
2.2108857363466368,-0.24444766291080278,-0.6598046473051649
1.8089638710366267,0.08678786945166332,-0.24444766291080278
1.8089638710366267,0.08678786945166332,-0.6598046473051649
1.8089638710366267,0.08678786945166332,-1.1434328777568594
1.8089638710366267,0.08678786945166332,-0.13138393869095338
1.8089638710366267,0.08678786945166332,0.9109313284022836
1.8089638710366267,-1.1434328777568594,-0.24444766291080278
1.8089638710366267,-1.1434328777568594,-0.6598046473051649
1.8089638710366267,-1.1434328777568594,-0.13138393869095338
1.8089638710366267,-1.1434328777568594,0.9109313284022836
1.8089638710366267,-0.13138393869095338,-0.24444766291080278
1.8089638710366267,-0.13138393869095338,-0.6598046473051649
1.8089638710366267,-0.13138393869095338,0.9109313284022836
1.8089638710366267,0.9109313284022836,-0.24444766291080278
1.8089638710366267,0.9109313284022836,-0.6598046473051649
1.8089638710366267,-0.24444766291080278,-0.6598046473051649
0.08678786945166332,-0.24444766291080278,-0.6598046473051649
0.08678786945166332,-1.1434328777568594,-0.24444766291080278
0.08678786945166332,-1.1434328777568594,-0.6598046473051649
0.08678786945166332,-1.1434328777568594,-0.13138393869095338
0.08678786945166332,-1.1434328777568594,0.9109313284022836
0.08678786945166332,-0.13138393869095338,-0.24444766291080278
0.08678786945166332,-0.13138393869095338,-0.6598046473051649
0.08678786945166332,-0.13138393869095338,0.9109313284022836
0.08678786945166332,0.9109313284022836,-0.24444766291080278
0.08678786945166332,0.9109313284022836,-0.6598046473051649
-1.1434328777568594,-0.24444766291080278,-0.6598046473051649
-1.1434328777568594,-0.13138393869095338,-0.24444766291080278
-1.1434328777568594,-0.13138393869095338,-0.6598046473051649
-1.1434328777568594,-0.13138393869095338,0.9109313284022836
-1.1434328777568594,0.9109313284022836,-0.24444766291080278
-1.1434328777568594,0.9109313284022836,-0.6598046473051649
-0.13138393869095338,-0.24444766291080278,-0.6598046473051649
-0.13138393869095338,0.9109313284022836,-0.24444766291080278
-0.13138393869095338,0.9109313284022836,-0.6598046473051649
0.9109313284022836,-0.24444766291080278,-0.6598046473051649
