0,1,2
1.1577460056443782,-0.325037731192953,-1.3451868947238679
1.1577460056443782,-0.325037731192953,0.6065371892359855
1.1577460056443782,-0.325037731192953,0.3232473071593606
1.1577460056443782,-0.325037731192953,-0.9536885932374658
1.1577460056443782,-0.325037731192953,0.23589713101406917
1.1577460056443782,-0.325037731192953,0.50670832264167
1.1577460056443782,-0.325037731192953,0.5348632916914403
1.1577460056443782,-0.325037731192953,0.4575588396016001
1.1577460056443782,-1.3451868947238679,0.6065371892359855
1.1577460056443782,-1.3451868947238679,0.3232473071593606
1.1577460056443782,-1.3451868947238679,-0.9536885932374658
1.1577460056443782,-1.3451868947238679,0.23589713101406917
1.1577460056443782,-1.3451868947238679,0.50670832264167
1.1577460056443782,-1.3451868947238679,0.5348632916914403
1.1577460056443782,-1.3451868947238679,0.4575588396016001
1.1577460056443782,0.6065371892359855,0.3232473071593606
1.1577460056443782,0.6065371892359855,-0.9536885932374658
1.1577460056443782,0.6065371892359855,0.23589713101406917
1.1577460056443782,0.6065371892359855,0.50670832264167
1.1577460056443782,0.6065371892359855,0.5348632916914403
1.1577460056443782,0.6065371892359855,0.4575588396016001
1.1577460056443782,0.3232473071593606,0.5348632916914403
1.1577460056443782,0.3232473071593606,0.4575588396016001
1.1577460056443782,0.3232473071593606,-0.9536885932374658
1.1577460056443782,0.3232473071593606,0.23589713101406917
1.1577460056443782,0.3232473071593606,0.50670832264167
1.1577460056443782,-0.9536885932374658,0.5348632916914403
1.1577460056443782,-0.9536885932374658,0.4575588396016001
1.1577460056443782,-0.9536885932374658,0.23589713101406917
1.1577460056443782,-0.9536885932374658,0.50670832264167
1.1577460056443782,0.23589713101406917,0.5348632916914403
1.1577460056443782,0.23589713101406917,0.4575588396016001
1.1577460056443782,0.23589713101406917,0.50670832264167
1.1577460056443782,0.50670832264167,0.5348632916914403
1.1577460056443782,0.50670832264167,0.4575588396016001
1.1577460056443782,0.5348632916914403,0.4575588396016001
-0.325037731192953,-1.3451868947238679,0.6065371892359855
-0.325037731192953,-1.3451868947238679,0.3232473071593606
-0.325037731192953,-1.3451868947238679,-0.9536885932374658
-0.325037731192953,-1.3451868947238679,0.23589713101406917
-0.325037731192953,-1.3451868947238679,0.50670832264167
-0.325037731192953,-1.3451868947238679,0.5348632916914403
-0.325037731192953,-1.3451868947238679,0.4575588396016001
-0.325037731192953,0.6065371892359855,0.3232473071593606
-0.325037731192953,0.6065371892359855,-0.9536885932374658
-0.325037731192953,0.6065371892359855,0.23589713101406917
-0.325037731192953,0.6065371892359855,0.50670832264167
-0.325037731192953,0.6065371892359855,0.5348632916914403
-0.325037731192953,0.6065371892359855,0.4575588396016001
-0.325037731192953,0.3232473071593606,0.5348632916914403
-0.325037731192953,0.3232473071593606,0.4575588396016001
-0.325037731192953,0.3232473071593606,-0.9536885932374658
-0.325037731192953,0.3232473071593606,0.23589713101406917
-0.325037731192953,0.3232473071593606,0.50670832264167
-0.325037731192953,-0.9536885932374658,0.5348632916914403
-0.325037731192953,-0.9536885932374658,0.4575588396016001
-0.325037731192953,-0.9536885932374658,0.23589713101406917
-0.325037731192953,-0.9536885932374658,0.50670832264167
-0.325037731192953,0.23589713101406917,0.5348632916914403
-0.325037731192953,0.23589713101406917,0.4575588396016001
-0.325037731192953,0.23589713101406917,0.50670832264167
-0.325037731192953,0.50670832264167,0.5348632916914403
-0.325037731192953,0.50670832264167,0.4575588396016001
-0.325037731192953,0.5348632916914403,0.4575588396016001
-1.3451868947238679,0.6065371892359855,0.3232473071593606
-1.3451868947238679,0.6065371892359855,-0.9536885932374658
-1.3451868947238679,0.6065371892359855,0.23589713101406917
-1.3451868947238679,0.6065371892359855,0.50670832264167
-1.3451868947238679,0.6065371892359855,0.5348632916914403
-1.3451868947238679,0.6065371892359855,0.4575588396016001
-1.3451868947238679,0.3232473071593606,0.5348632916914403
-1.3451868947238679,0.3232473071593606,0.4575588396016001
-1.3451868947238679,0.3232473071593606,-0.9536885932374658
-1.3451868947238679,0.3232473071593606,0.23589713101406917
-1.3451868947238679,0.3232473071593606,0.50670832264167
-1.3451868947238679,-0.9536885932374658,0.5348632916914403
-1.3451868947238679,-0.9536885932374658,0.4575588396016001
-1.3451868947238679,-0.9536885932374658,0.23589713101406917
-1.3451868947238679,-0.9536885932374658,0.50670832264167
-1.3451868947238679,0.23589713101406917,0.5348632916914403
-1.3451868947238679,0.23589713101406917,0.4575588396016001
-1.3451868947238679,0.23589713101406917,0.50670832264167
-1.3451868947238679,0.50670832264167,0.5348632916914403
-1.3451868947238679,0.50670832264167,0.4575588396016001
-1.3451868947238679,0.5348632916914403,0.4575588396016001
0.6065371892359855,0.3232473071593606,0.5348632916914403
0.6065371892359855,0.3232473071593606,0.4575588396016001
0.6065371892359855,0.3232473071593606,-0.9536885932374658
0.6065371892359855,0.3232473071593606,0.23589713101406917
0.6065371892359855,0.3232473071593606,0.50670832264167
0.6065371892359855,-0.9536885932374658,0.5348632916914403
0.6065371892359855,-0.9536885932374658,0.4575588396016001
0.6065371892359855,-0.9536885932374658,0.23589713101406917
0.6065371892359855,-0.9536885932374658,0.50670832264167
0.6065371892359855,0.23589713101406917,0.5348632916914403
0.6065371892359855,0.23589713101406917,0.4575588396016001
0.6065371892359855,0.23589713101406917,0.50670832264167
0.6065371892359855,0.50670832264167,0.5348632916914403
0.6065371892359855,0.50670832264167,0.4575588396016001
0.6065371892359855,0.5348632916914403,0.4575588396016001
0.3232473071593606,0.5348632916914403,0.4575588396016001
0.3232473071593606,-0.9536885932374658,0.5348632916914403
0.3232473071593606,-0.9536885932374658,0.4575588396016001
0.3232473071593606,-0.9536885932374658,0.23589713101406917
0.3232473071593606,-0.9536885932374658,0.50670832264167
0.3232473071593606,0.23589713101406917,0.5348632916914403
0.3232473071593606,0.23589713101406917,0.4575588396016001
0.3232473071593606,0.23589713101406917,0.50670832264167
0.3232473071593606,0.50670832264167,0.5348632916914403
0.3232473071593606,0.50670832264167,0.4575588396016001
-0.9536885932374658,0.5348632916914403,0.4575588396016001
-0.9536885932374658,0.23589713101406917,0.5348632916914403
-0.9536885932374658,0.23589713101406917,0.4575588396016001
-0.9536885932374658,0.23589713101406917,0.50670832264167
-0.9536885932374658,0.50670832264167,0.5348632916914403
-0.9536885932374658,0.50670832264167,0.4575588396016001
0.23589713101406917,0.5348632916914403,0.4575588396016001
0.23589713101406917,0.50670832264167,0.5348632916914403
0.23589713101406917,0.50670832264167,0.4575588396016001
0.50670832264167,0.5348632916914403,0.4575588396016001
