0,1,2
1.7489405036587926,-1.1434168945699645,0.14601921525331713
1.7489405036587926,-1.1434168945699645,-0.45344396591590325
1.7489405036587926,-1.1434168945699645,0.8739180351894938
1.7489405036587926,-1.1434168945699645,-0.41955061900633944
1.7489405036587926,-1.1434168945699645,0.5870423471097936
1.7489405036587926,-1.1434168945699645,-0.9590337434316634
1.7489405036587926,-1.1434168945699645,1.2440067320808814
1.7489405036587926,-1.1434168945699645,-1.3949867132043507
1.7489405036587926,0.14601921525331713,-0.45344396591590325
1.7489405036587926,0.14601921525331713,0.8739180351894938
1.7489405036587926,0.14601921525331713,-0.41955061900633944
1.7489405036587926,0.14601921525331713,0.5870423471097936
1.7489405036587926,0.14601921525331713,-0.9590337434316634
1.7489405036587926,0.14601921525331713,1.2440067320808814
1.7489405036587926,0.14601921525331713,-1.3949867132043507
1.7489405036587926,-0.45344396591590325,0.8739180351894938
1.7489405036587926,-0.45344396591590325,-0.41955061900633944
1.7489405036587926,-0.45344396591590325,0.5870423471097936
1.7489405036587926,-0.45344396591590325,-0.9590337434316634
1.7489405036587926,-0.45344396591590325,1.2440067320808814
1.7489405036587926,-0.45344396591590325,-1.3949867132043507
1.7489405036587926,0.8739180351894938,1.2440067320808814
1.7489405036587926,0.8739180351894938,-1.3949867132043507
1.7489405036587926,0.8739180351894938,-0.41955061900633944
1.7489405036587926,0.8739180351894938,0.5870423471097936
1.7489405036587926,0.8739180351894938,-0.9590337434316634
1.7489405036587926,-0.41955061900633944,1.2440067320808814
1.7489405036587926,-0.41955061900633944,-1.3949867132043507
1.7489405036587926,-0.41955061900633944,0.5870423471097936
1.7489405036587926,-0.41955061900633944,-0.9590337434316634
1.7489405036587926,0.5870423471097936,1.2440067320808814
1.7489405036587926,0.5870423471097936,-1.3949867132043507
1.7489405036587926,0.5870423471097936,-0.9590337434316634
1.7489405036587926,-0.9590337434316634,1.2440067320808814
1.7489405036587926,-0.9590337434316634,-1.3949867132043507
1.7489405036587926,1.2440067320808814,-1.3949867132043507
-1.1434168945699645,0.14601921525331713,-0.45344396591590325
-1.1434168945699645,0.14601921525331713,0.8739180351894938
-1.1434168945699645,0.14601921525331713,-0.41955061900633944
-1.1434168945699645,0.14601921525331713,0.5870423471097936
-1.1434168945699645,0.14601921525331713,-0.9590337434316634
-1.1434168945699645,0.14601921525331713,1.2440067320808814
-1.1434168945699645,0.14601921525331713,-1.3949867132043507
-1.1434168945699645,-0.45344396591590325,0.8739180351894938
-1.1434168945699645,-0.45344396591590325,-0.41955061900633944
-1.1434168945699645,-0.45344396591590325,0.5870423471097936
-1.1434168945699645,-0.45344396591590325,-0.9590337434316634
-1.1434168945699645,-0.45344396591590325,1.2440067320808814
-1.1434168945699645,-0.45344396591590325,-1.3949867132043507
-1.1434168945699645,0.8739180351894938,1.2440067320808814
-1.1434168945699645,0.8739180351894938,-1.3949867132043507
-1.1434168945699645,0.8739180351894938,-0.41955061900633944
-1.1434168945699645,0.8739180351894938,0.5870423471097936
-1.1434168945699645,0.8739180351894938,-0.9590337434316634
-1.1434168945699645,-0.41955061900633944,1.2440067320808814
-1.1434168945699645,-0.41955061900633944,-1.3949867132043507
-1.1434168945699645,-0.41955061900633944,0.5870423471097936
-1.1434168945699645,-0.41955061900633944,-0.9590337434316634
-1.1434168945699645,0.5870423471097936,1.2440067320808814
-1.1434168945699645,0.5870423471097936,-1.3949867132043507
-1.1434168945699645,0.5870423471097936,-0.9590337434316634
-1.1434168945699645,-0.9590337434316634,1.2440067320808814
-1.1434168945699645,-0.9590337434316634,-1.3949867132043507
-1.1434168945699645,1.2440067320808814,-1.3949867132043507
0.14601921525331713,-0.45344396591590325,0.8739180351894938
0.14601921525331713,-0.45344396591590325,-0.41955061900633944
0.14601921525331713,-0.45344396591590325,0.5870423471097936
0.14601921525331713,-0.45344396591590325,-0.9590337434316634
0.14601921525331713,-0.45344396591590325,1.2440067320808814
0.14601921525331713,-0.45344396591590325,-1.3949867132043507
0.14601921525331713,0.8739180351894938,1.2440067320808814
0.14601921525331713,0.8739180351894938,-1.3949867132043507
0.14601921525331713,0.8739180351894938,-0.41955061900633944
0.14601921525331713,0.8739180351894938,0.5870423471097936
0.14601921525331713,0.8739180351894938,-0.9590337434316634
0.14601921525331713,-0.41955061900633944,1.2440067320808814
0.14601921525331713,-0.41955061900633944,-1.3949867132043507
0.14601921525331713,-0.41955061900633944,0.5870423471097936
0.14601921525331713,-0.41955061900633944,-0.9590337434316634
0.14601921525331713,0.5870423471097936,1.2440067320808814
0.14601921525331713,0.5870423471097936,-1.3949867132043507
0.14601921525331713,0.5870423471097936,-0.9590337434316634
0.14601921525331713,-0.9590337434316634,1.2440067320808814
0.14601921525331713,-0.9590337434316634,-1.3949867132043507
0.14601921525331713,1.2440067320808814,-1.3949867132043507
-0.45344396591590325,0.8739180351894938,1.2440067320808814
-0.45344396591590325,0.8739180351894938,-1.3949867132043507
-0.45344396591590325,0.8739180351894938,-0.41955061900633944
-0.45344396591590325,0.8739180351894938,0.5870423471097936
-0.45344396591590325,0.8739180351894938,-0.9590337434316634
-0.45344396591590325,-0.41955061900633944,1.2440067320808814
-0.45344396591590325,-0.41955061900633944,-1.3949867132043507
-0.45344396591590325,-0.41955061900633944,0.5870423471097936
-0.45344396591590325,-0.41955061900633944,-0.9590337434316634
-0.45344396591590325,0.5870423471097936,1.2440067320808814
-0.45344396591590325,0.5870423471097936,-1.3949867132043507
-0.45344396591590325,0.5870423471097936,-0.9590337434316634
-0.45344396591590325,-0.9590337434316634,1.2440067320808814
-0.45344396591590325,-0.9590337434316634,-1.3949867132043507
-0.45344396591590325,1.2440067320808814,-1.3949867132043507
0.8739180351894938,1.2440067320808814,-1.3949867132043507
0.8739180351894938,-0.41955061900633944,1.2440067320808814
0.8739180351894938,-0.41955061900633944,-1.3949867132043507
0.8739180351894938,-0.41955061900633944,0.5870423471097936
0.8739180351894938,-0.41955061900633944,-0.9590337434316634
0.8739180351894938,0.5870423471097936,1.2440067320808814
0.8739180351894938,0.5870423471097936,-1.3949867132043507
0.8739180351894938,0.5870423471097936,-0.9590337434316634
0.8739180351894938,-0.9590337434316634,1.2440067320808814
0.8739180351894938,-0.9590337434316634,-1.3949867132043507
-0.41955061900633944,1.2440067320808814,-1.3949867132043507
-0.41955061900633944,0.5870423471097936,1.2440067320808814
-0.41955061900633944,0.5870423471097936,-1.3949867132043507
-0.41955061900633944,0.5870423471097936,-0.9590337434316634
-0.41955061900633944,-0.9590337434316634,1.2440067320808814
-0.41955061900633944,-0.9590337434316634,-1.3949867132043507
0.5870423471097936,1.2440067320808814,-1.3949867132043507
0.5870423471097936,-0.9590337434316634,1.2440067320808814
0.5870423471097936,-0.9590337434316634,-1.3949867132043507
-0.9590337434316634,1.2440067320808814,-1.3949867132043507
