0,1,2
-0.4538396755527648,0.26882697111564247,1.0579751237333201
-0.4538396755527648,0.26882697111564247,0.6646582547262331
-0.4538396755527648,0.26882697111564247,0.21549505293728502
-0.4538396755527648,0.26882697111564247,0.041571049585663204
-0.4538396755527648,0.26882697111564247,-1.0715996252643762
-0.4538396755527648,0.26882697111564247,-0.7018069734164363
-0.4538396755527648,0.26882697111564247,-1.505707686295673
-0.4538396755527648,0.26882697111564247,-2.336233380385491
-0.4538396755527648,1.0579751237333201,0.6646582547262331
-0.4538396755527648,1.0579751237333201,0.21549505293728502
-0.4538396755527648,1.0579751237333201,0.041571049585663204
-0.4538396755527648,1.0579751237333201,-1.0715996252643762
-0.4538396755527648,1.0579751237333201,-0.7018069734164363
-0.4538396755527648,1.0579751237333201,-1.505707686295673
-0.4538396755527648,1.0579751237333201,-2.336233380385491
-0.4538396755527648,0.6646582547262331,0.21549505293728502
-0.4538396755527648,0.6646582547262331,0.041571049585663204
-0.4538396755527648,0.6646582547262331,-1.0715996252643762
-0.4538396755527648,0.6646582547262331,-0.7018069734164363
-0.4538396755527648,0.6646582547262331,-1.505707686295673
-0.4538396755527648,0.6646582547262331,-2.336233380385491
-0.4538396755527648,0.21549505293728502,-1.505707686295673
-0.4538396755527648,0.21549505293728502,-2.336233380385491
-0.4538396755527648,0.21549505293728502,0.041571049585663204
-0.4538396755527648,0.21549505293728502,-1.0715996252643762
-0.4538396755527648,0.21549505293728502,-0.7018069734164363
-0.4538396755527648,0.041571049585663204,-1.505707686295673
-0.4538396755527648,0.041571049585663204,-2.336233380385491
-0.4538396755527648,0.041571049585663204,-1.0715996252643762
-0.4538396755527648,0.041571049585663204,-0.7018069734164363
-0.4538396755527648,-1.0715996252643762,-1.505707686295673
-0.4538396755527648,-1.0715996252643762,-2.336233380385491
-0.4538396755527648,-1.0715996252643762,-0.7018069734164363
-0.4538396755527648,-0.7018069734164363,-1.505707686295673
-0.4538396755527648,-0.7018069734164363,-2.336233380385491
-0.4538396755527648,-1.505707686295673,-2.336233380385491
0.26882697111564247,1.0579751237333201,0.6646582547262331
0.26882697111564247,1.0579751237333201,0.21549505293728502
0.26882697111564247,1.0579751237333201,0.041571049585663204
0.26882697111564247,1.0579751237333201,-1.0715996252643762
0.26882697111564247,1.0579751237333201,-0.7018069734164363
0.26882697111564247,1.0579751237333201,-1.505707686295673
0.26882697111564247,1.0579751237333201,-2.336233380385491
0.26882697111564247,0.6646582547262331,0.21549505293728502
0.26882697111564247,0.6646582547262331,0.041571049585663204
0.26882697111564247,0.6646582547262331,-1.0715996252643762
0.26882697111564247,0.6646582547262331,-0.7018069734164363
0.26882697111564247,0.6646582547262331,-1.505707686295673
0.26882697111564247,0.6646582547262331,-2.336233380385491
0.26882697111564247,0.21549505293728502,-1.505707686295673
0.26882697111564247,0.21549505293728502,-2.336233380385491
0.26882697111564247,0.21549505293728502,0.041571049585663204
0.26882697111564247,0.21549505293728502,-1.0715996252643762
0.26882697111564247,0.21549505293728502,-0.7018069734164363
0.26882697111564247,0.041571049585663204,-1.505707686295673
0.26882697111564247,0.041571049585663204,-2.336233380385491
0.26882697111564247,0.041571049585663204,-1.0715996252643762
0.26882697111564247,0.041571049585663204,-0.7018069734164363
0.26882697111564247,-1.0715996252643762,-1.505707686295673
0.26882697111564247,-1.0715996252643762,-2.336233380385491
0.26882697111564247,-1.0715996252643762,-0.7018069734164363
0.26882697111564247,-0.7018069734164363,-1.505707686295673
0.26882697111564247,-0.7018069734164363,-2.336233380385491
0.26882697111564247,-1.505707686295673,-2.336233380385491
1.0579751237333201,0.6646582547262331,0.21549505293728502
1.0579751237333201,0.6646582547262331,0.041571049585663204
1.0579751237333201,0.6646582547262331,-1.0715996252643762
1.0579751237333201,0.6646582547262331,-0.7018069734164363
1.0579751237333201,0.6646582547262331,-1.505707686295673
1.0579751237333201,0.6646582547262331,-2.336233380385491
1.0579751237333201,0.21549505293728502,-1.505707686295673
1.0579751237333201,0.21549505293728502,-2.336233380385491
1.0579751237333201,0.21549505293728502,0.041571049585663204
1.0579751237333201,0.21549505293728502,-1.0715996252643762
1.0579751237333201,0.21549505293728502,-0.7018069734164363
1.0579751237333201,0.041571049585663204,-1.505707686295673
1.0579751237333201,0.041571049585663204,-2.336233380385491
1.0579751237333201,0.041571049585663204,-1.0715996252643762
1.0579751237333201,0.041571049585663204,-0.7018069734164363
1.0579751237333201,-1.0715996252643762,-1.505707686295673
1.0579751237333201,-1.0715996252643762,-2.336233380385491
1.0579751237333201,-1.0715996252643762,-0.7018069734164363
1.0579751237333201,-0.7018069734164363,-1.505707686295673
1.0579751237333201,-0.7018069734164363,-2.336233380385491
1.0579751237333201,-1.505707686295673,-2.336233380385491
0.6646582547262331,0.21549505293728502,-1.505707686295673
0.6646582547262331,0.21549505293728502,-2.336233380385491
0.6646582547262331,0.21549505293728502,0.041571049585663204
0.6646582547262331,0.21549505293728502,-1.0715996252643762
0.6646582547262331,0.21549505293728502,-0.7018069734164363
0.6646582547262331,0.041571049585663204,-1.505707686295673
0.6646582547262331,0.041571049585663204,-2.336233380385491
0.6646582547262331,0.041571049585663204,-1.0715996252643762
0.6646582547262331,0.041571049585663204,-0.7018069734164363
0.6646582547262331,-1.0715996252643762,-1.505707686295673
0.6646582547262331,-1.0715996252643762,-2.336233380385491
0.6646582547262331,-1.0715996252643762,-0.7018069734164363
0.6646582547262331,-0.7018069734164363,-1.505707686295673
0.6646582547262331,-0.7018069734164363,-2.336233380385491
0.6646582547262331,-1.505707686295673,-2.336233380385491
0.21549505293728502,-1.505707686295673,-2.336233380385491
0.21549505293728502,0.041571049585663204,-1.505707686295673
0.21549505293728502,0.041571049585663204,-2.336233380385491
0.21549505293728502,0.041571049585663204,-1.0715996252643762
0.21549505293728502,0.041571049585663204,-0.7018069734164363
0.21549505293728502,-1.0715996252643762,-1.505707686295673
0.21549505293728502,-1.0715996252643762,-2.336233380385491
0.21549505293728502,-1.0715996252643762,-0.7018069734164363
0.21549505293728502,-0.7018069734164363,-1.505707686295673
0.21549505293728502,-0.7018069734164363,-2.336233380385491
0.041571049585663204,-1.505707686295673,-2.336233380385491
0.041571049585663204,-1.0715996252643762,-1.505707686295673
0.041571049585663204,-1.0715996252643762,-2.336233380385491
0.041571049585663204,-1.0715996252643762,-0.7018069734164363
0.041571049585663204,-0.7018069734164363,-1.505707686295673
0.041571049585663204,-0.7018069734164363,-2.336233380385491
-1.0715996252643762,-1.505707686295673,-2.336233380385491
-1.0715996252643762,-0.7018069734164363,-1.505707686295673
-1.0715996252643762,-0.7018069734164363,-2.336233380385491
-0.7018069734164363,-1.505707686295673,-2.336233380385491
