0,1,2
-1.6846616680441167,1.130565842787437,-1.1900645304324182
-1.6846616680441167,1.130565842787437,0.17885069862462374
-1.6846616680441167,1.130565842787437,0.03755643969400285
-1.6846616680441167,1.130565842787437,2.543583446314156
-1.6846616680441167,1.130565842787437,0.8995182530180066
-1.6846616680441167,1.130565842787437,-0.257960263765158
-1.6846616680441167,1.130565842787437,-0.9057455549676178
-1.6846616680441167,1.130565842787437,1.734648701290379
-1.6846616680441167,-1.1900645304324182,0.17885069862462374
-1.6846616680441167,-1.1900645304324182,0.03755643969400285
-1.6846616680441167,-1.1900645304324182,2.543583446314156
-1.6846616680441167,-1.1900645304324182,0.8995182530180066
-1.6846616680441167,-1.1900645304324182,-0.257960263765158
-1.6846616680441167,-1.1900645304324182,-0.9057455549676178
-1.6846616680441167,-1.1900645304324182,1.734648701290379
-1.6846616680441167,0.17885069862462374,0.03755643969400285
-1.6846616680441167,0.17885069862462374,2.543583446314156
-1.6846616680441167,0.17885069862462374,0.8995182530180066
-1.6846616680441167,0.17885069862462374,-0.257960263765158
-1.6846616680441167,0.17885069862462374,-0.9057455549676178
-1.6846616680441167,0.17885069862462374,1.734648701290379
-1.6846616680441167,0.03755643969400285,-0.9057455549676178
-1.6846616680441167,0.03755643969400285,1.734648701290379
-1.6846616680441167,0.03755643969400285,2.543583446314156
-1.6846616680441167,0.03755643969400285,0.8995182530180066
-1.6846616680441167,0.03755643969400285,-0.257960263765158
-1.6846616680441167,2.543583446314156,-0.9057455549676178
-1.6846616680441167,2.543583446314156,1.734648701290379
-1.6846616680441167,2.543583446314156,0.8995182530180066
-1.6846616680441167,2.543583446314156,-0.257960263765158
-1.6846616680441167,0.8995182530180066,-0.9057455549676178
-1.6846616680441167,0.8995182530180066,1.734648701290379
-1.6846616680441167,0.8995182530180066,-0.257960263765158
-1.6846616680441167,-0.257960263765158,-0.9057455549676178
-1.6846616680441167,-0.257960263765158,1.734648701290379
-1.6846616680441167,-0.9057455549676178,1.734648701290379
1.130565842787437,-1.1900645304324182,0.17885069862462374
1.130565842787437,-1.1900645304324182,0.03755643969400285
1.130565842787437,-1.1900645304324182,2.543583446314156
1.130565842787437,-1.1900645304324182,0.8995182530180066
1.130565842787437,-1.1900645304324182,-0.257960263765158
1.130565842787437,-1.1900645304324182,-0.9057455549676178
1.130565842787437,-1.1900645304324182,1.734648701290379
1.130565842787437,0.17885069862462374,0.03755643969400285
1.130565842787437,0.17885069862462374,2.543583446314156
1.130565842787437,0.17885069862462374,0.8995182530180066
1.130565842787437,0.17885069862462374,-0.257960263765158
1.130565842787437,0.17885069862462374,-0.9057455549676178
1.130565842787437,0.17885069862462374,1.734648701290379
1.130565842787437,0.03755643969400285,-0.9057455549676178
1.130565842787437,0.03755643969400285,1.734648701290379
1.130565842787437,0.03755643969400285,2.543583446314156
1.130565842787437,0.03755643969400285,0.8995182530180066
1.130565842787437,0.03755643969400285,-0.257960263765158
1.130565842787437,2.543583446314156,-0.9057455549676178
1.130565842787437,2.543583446314156,1.734648701290379
1.130565842787437,2.543583446314156,0.8995182530180066
1.130565842787437,2.543583446314156,-0.257960263765158
1.130565842787437,0.8995182530180066,-0.9057455549676178
1.130565842787437,0.8995182530180066,1.734648701290379
1.130565842787437,0.8995182530180066,-0.257960263765158
1.130565842787437,-0.257960263765158,-0.9057455549676178
1.130565842787437,-0.257960263765158,1.734648701290379
1.130565842787437,-0.9057455549676178,1.734648701290379
-1.1900645304324182,0.17885069862462374,0.03755643969400285
-1.1900645304324182,0.17885069862462374,2.543583446314156
-1.1900645304324182,0.17885069862462374,0.8995182530180066
-1.1900645304324182,0.17885069862462374,-0.257960263765158
-1.1900645304324182,0.17885069862462374,-0.9057455549676178
-1.1900645304324182,0.17885069862462374,1.734648701290379
-1.1900645304324182,0.03755643969400285,-0.9057455549676178
-1.1900645304324182,0.03755643969400285,1.734648701290379
-1.1900645304324182,0.03755643969400285,2.543583446314156
-1.1900645304324182,0.03755643969400285,0.8995182530180066
-1.1900645304324182,0.03755643969400285,-0.257960263765158
-1.1900645304324182,2.543583446314156,-0.9057455549676178
-1.1900645304324182,2.543583446314156,1.734648701290379
-1.1900645304324182,2.543583446314156,0.8995182530180066
-1.1900645304324182,2.543583446314156,-0.257960263765158
-1.1900645304324182,0.8995182530180066,-0.9057455549676178
-1.1900645304324182,0.8995182530180066,1.734648701290379
-1.1900645304324182,0.8995182530180066,-0.257960263765158
-1.1900645304324182,-0.257960263765158,-0.9057455549676178
-1.1900645304324182,-0.257960263765158,1.734648701290379
-1.1900645304324182,-0.9057455549676178,1.734648701290379
0.17885069862462374,0.03755643969400285,-0.9057455549676178
0.17885069862462374,0.03755643969400285,1.734648701290379
0.17885069862462374,0.03755643969400285,2.543583446314156
0.17885069862462374,0.03755643969400285,0.8995182530180066
0.17885069862462374,0.03755643969400285,-0.257960263765158
0.17885069862462374,2.543583446314156,-0.9057455549676178
0.17885069862462374,2.543583446314156,1.734648701290379
0.17885069862462374,2.543583446314156,0.8995182530180066
0.17885069862462374,2.543583446314156,-0.257960263765158
0.17885069862462374,0.8995182530180066,-0.9057455549676178
0.17885069862462374,0.8995182530180066,1.734648701290379
0.17885069862462374,0.8995182530180066,-0.257960263765158
0.17885069862462374,-0.257960263765158,-0.9057455549676178
0.17885069862462374,-0.257960263765158,1.734648701290379
0.17885069862462374,-0.9057455549676178,1.734648701290379
0.03755643969400285,-0.9057455549676178,1.734648701290379
0.03755643969400285,2.543583446314156,-0.9057455549676178
0.03755643969400285,2.543583446314156,1.734648701290379
0.03755643969400285,2.543583446314156,0.8995182530180066
0.03755643969400285,2.543583446314156,-0.257960263765158
0.03755643969400285,0.8995182530180066,-0.9057455549676178
0.03755643969400285,0.8995182530180066,1.734648701290379
0.03755643969400285,0.8995182530180066,-0.257960263765158
0.03755643969400285,-0.257960263765158,-0.9057455549676178
0.03755643969400285,-0.257960263765158,1.734648701290379
2.543583446314156,-0.9057455549676178,1.734648701290379
2.543583446314156,0.8995182530180066,-0.9057455549676178
2.543583446314156,0.8995182530180066,1.734648701290379
2.543583446314156,0.8995182530180066,-0.257960263765158
2.543583446314156,-0.257960263765158,-0.9057455549676178
2.543583446314156,-0.257960263765158,1.734648701290379
0.8995182530180066,-0.9057455549676178,1.734648701290379
0.8995182530180066,-0.257960263765158,-0.9057455549676178
0.8995182530180066,-0.257960263765158,1.734648701290379
-0.257960263765158,-0.9057455549676178,1.734648701290379
