0,1,2
1.5995441383577496,-0.5550624453600864,1.7211060467631873
1.5995441383577496,-0.5550624453600864,0.15770532858953568
1.5995441383577496,-0.5550624453600864,3.4224863338403066
1.5995441383577496,-0.5550624453600864,1.2723073461467682
1.5995441383577496,-0.5550624453600864,0.6626452412158762
1.5995441383577496,-0.5550624453600864,0.013671877024776555
1.5995441383577496,-0.5550624453600864,0.6111864936071651
1.5995441383577496,-0.5550624453600864,-0.7413930762419941
1.5995441383577496,1.7211060467631873,0.15770532858953568
1.5995441383577496,1.7211060467631873,3.4224863338403066
1.5995441383577496,1.7211060467631873,1.2723073461467682
1.5995441383577496,1.7211060467631873,0.6626452412158762
1.5995441383577496,1.7211060467631873,0.013671877024776555
1.5995441383577496,1.7211060467631873,0.6111864936071651
1.5995441383577496,1.7211060467631873,-0.7413930762419941
1.5995441383577496,0.15770532858953568,3.4224863338403066
1.5995441383577496,0.15770532858953568,1.2723073461467682
1.5995441383577496,0.15770532858953568,0.6626452412158762
1.5995441383577496,0.15770532858953568,0.013671877024776555
1.5995441383577496,0.15770532858953568,0.6111864936071651
1.5995441383577496,0.15770532858953568,-0.7413930762419941
1.5995441383577496,3.4224863338403066,0.6111864936071651
1.5995441383577496,3.4224863338403066,-0.7413930762419941
1.5995441383577496,3.4224863338403066,1.2723073461467682
1.5995441383577496,3.4224863338403066,0.6626452412158762
1.5995441383577496,3.4224863338403066,0.013671877024776555
1.5995441383577496,1.2723073461467682,0.6111864936071651
1.5995441383577496,1.2723073461467682,-0.7413930762419941
1.5995441383577496,1.2723073461467682,0.6626452412158762
1.5995441383577496,1.2723073461467682,0.013671877024776555
1.5995441383577496,0.6626452412158762,0.6111864936071651
1.5995441383577496,0.6626452412158762,-0.7413930762419941
1.5995441383577496,0.6626452412158762,0.013671877024776555
1.5995441383577496,0.013671877024776555,0.6111864936071651
1.5995441383577496,0.013671877024776555,-0.7413930762419941
1.5995441383577496,0.6111864936071651,-0.7413930762419941
-0.5550624453600864,1.7211060467631873,0.15770532858953568
-0.5550624453600864,1.7211060467631873,3.4224863338403066
-0.5550624453600864,1.7211060467631873,1.2723073461467682
-0.5550624453600864,1.7211060467631873,0.6626452412158762
-0.5550624453600864,1.7211060467631873,0.013671877024776555
-0.5550624453600864,1.7211060467631873,0.6111864936071651
-0.5550624453600864,1.7211060467631873,-0.7413930762419941
-0.5550624453600864,0.15770532858953568,3.4224863338403066
-0.5550624453600864,0.15770532858953568,1.2723073461467682
-0.5550624453600864,0.15770532858953568,0.6626452412158762
-0.5550624453600864,0.15770532858953568,0.013671877024776555
-0.5550624453600864,0.15770532858953568,0.6111864936071651
-0.5550624453600864,0.15770532858953568,-0.7413930762419941
-0.5550624453600864,3.4224863338403066,0.6111864936071651
-0.5550624453600864,3.4224863338403066,-0.7413930762419941
-0.5550624453600864,3.4224863338403066,1.2723073461467682
-0.5550624453600864,3.4224863338403066,0.6626452412158762
-0.5550624453600864,3.4224863338403066,0.013671877024776555
-0.5550624453600864,1.2723073461467682,0.6111864936071651
-0.5550624453600864,1.2723073461467682,-0.7413930762419941
-0.5550624453600864,1.2723073461467682,0.6626452412158762
-0.5550624453600864,1.2723073461467682,0.013671877024776555
-0.5550624453600864,0.6626452412158762,0.6111864936071651
-0.5550624453600864,0.6626452412158762,-0.7413930762419941
-0.5550624453600864,0.6626452412158762,0.013671877024776555
-0.5550624453600864,0.013671877024776555,0.6111864936071651
-0.5550624453600864,0.013671877024776555,-0.7413930762419941
-0.5550624453600864,0.6111864936071651,-0.7413930762419941
1.7211060467631873,0.15770532858953568,3.4224863338403066
1.7211060467631873,0.15770532858953568,1.2723073461467682
1.7211060467631873,0.15770532858953568,0.6626452412158762
1.7211060467631873,0.15770532858953568,0.013671877024776555
1.7211060467631873,0.15770532858953568,0.6111864936071651
1.7211060467631873,0.15770532858953568,-0.7413930762419941
1.7211060467631873,3.4224863338403066,0.6111864936071651
1.7211060467631873,3.4224863338403066,-0.7413930762419941
1.7211060467631873,3.4224863338403066,1.2723073461467682
1.7211060467631873,3.4224863338403066,0.6626452412158762
1.7211060467631873,3.4224863338403066,0.013671877024776555
1.7211060467631873,1.2723073461467682,0.6111864936071651
1.7211060467631873,1.2723073461467682,-0.7413930762419941
1.7211060467631873,1.2723073461467682,0.6626452412158762
1.7211060467631873,1.2723073461467682,0.013671877024776555
1.7211060467631873,0.6626452412158762,0.6111864936071651
1.7211060467631873,0.6626452412158762,-0.7413930762419941
1.7211060467631873,0.6626452412158762,0.013671877024776555
1.7211060467631873,0.013671877024776555,0.6111864936071651
1.7211060467631873,0.013671877024776555,-0.7413930762419941
1.7211060467631873,0.6111864936071651,-0.7413930762419941
0.15770532858953568,3.4224863338403066,0.6111864936071651
0.15770532858953568,3.4224863338403066,-0.7413930762419941
0.15770532858953568,3.4224863338403066,1.2723073461467682
0.15770532858953568,3.4224863338403066,0.6626452412158762
0.15770532858953568,3.4224863338403066,0.013671877024776555
0.15770532858953568,1.2723073461467682,0.6111864936071651
0.15770532858953568,1.2723073461467682,-0.7413930762419941
0.15770532858953568,1.2723073461467682,0.6626452412158762
0.15770532858953568,1.2723073461467682,0.013671877024776555
0.15770532858953568,0.6626452412158762,0.6111864936071651
0.15770532858953568,0.6626452412158762,-0.7413930762419941
0.15770532858953568,0.6626452412158762,0.013671877024776555
0.15770532858953568,0.013671877024776555,0.6111864936071651
0.15770532858953568,0.013671877024776555,-0.7413930762419941
0.15770532858953568,0.6111864936071651,-0.7413930762419941
3.4224863338403066,0.6111864936071651,-0.7413930762419941
3.4224863338403066,1.2723073461467682,0.6111864936071651
3.4224863338403066,1.2723073461467682,-0.7413930762419941
3.4224863338403066,1.2723073461467682,0.6626452412158762
3.4224863338403066,1.2723073461467682,0.013671877024776555
3.4224863338403066,0.6626452412158762,0.6111864936071651
3.4224863338403066,0.6626452412158762,-0.7413930762419941
3.4224863338403066,0.6626452412158762,0.013671877024776555
3.4224863338403066,0.013671877024776555,0.6111864936071651
3.4224863338403066,0.013671877024776555,-0.7413930762419941
1.2723073461467682,0.6111864936071651,-0.7413930762419941
1.2723073461467682,0.6626452412158762,0.6111864936071651
1.2723073461467682,0.6626452412158762,-0.7413930762419941
1.2723073461467682,0.6626452412158762,0.013671877024776555
1.2723073461467682,0.013671877024776555,0.6111864936071651
1.2723073461467682,0.013671877024776555,-0.7413930762419941
0.6626452412158762,0.6111864936071651,-0.7413930762419941
0.6626452412158762,0.013671877024776555,0.6111864936071651
0.6626452412158762,0.013671877024776555,-0.7413930762419941
0.013671877024776555,0.6111864936071651,-0.7413930762419941
