0,1,2
0.8729643999083343,0.42791405907340374,-0.20048079291020193
0.8729643999083343,0.42791405907340374,-0.20985217658841318
0.8729643999083343,0.42791405907340374,0.32711163977402336
0.8729643999083343,0.42791405907340374,-0.3195216091795757
0.8729643999083343,0.42791405907340374,1.2028936493513873
0.8729643999083343,0.42791405907340374,-0.16642298871155572
0.8729643999083343,0.42791405907340374,1.0751941003518346
0.8729643999083343,0.42791405907340374,0.15721650301560025
0.8729643999083343,-0.20048079291020193,-0.20985217658841318
0.8729643999083343,-0.20048079291020193,0.32711163977402336
0.8729643999083343,-0.20048079291020193,-0.3195216091795757
0.8729643999083343,-0.20048079291020193,1.2028936493513873
0.8729643999083343,-0.20048079291020193,-0.16642298871155572
0.8729643999083343,-0.20048079291020193,1.0751941003518346
0.8729643999083343,-0.20048079291020193,0.15721650301560025
0.8729643999083343,-0.20985217658841318,0.32711163977402336
0.8729643999083343,-0.20985217658841318,-0.3195216091795757
0.8729643999083343,-0.20985217658841318,1.2028936493513873
0.8729643999083343,-0.20985217658841318,-0.16642298871155572
0.8729643999083343,-0.20985217658841318,1.0751941003518346
0.8729643999083343,-0.20985217658841318,0.15721650301560025
0.8729643999083343,0.32711163977402336,1.0751941003518346
0.8729643999083343,0.32711163977402336,0.15721650301560025
0.8729643999083343,0.32711163977402336,-0.3195216091795757
0.8729643999083343,0.32711163977402336,1.2028936493513873
0.8729643999083343,0.32711163977402336,-0.16642298871155572
0.8729643999083343,-0.3195216091795757,1.0751941003518346
0.8729643999083343,-0.3195216091795757,0.15721650301560025
0.8729643999083343,-0.3195216091795757,1.2028936493513873
0.8729643999083343,-0.3195216091795757,-0.16642298871155572
0.8729643999083343,1.2028936493513873,1.0751941003518346
0.8729643999083343,1.2028936493513873,0.15721650301560025
0.8729643999083343,1.2028936493513873,-0.16642298871155572
0.8729643999083343,-0.16642298871155572,1.0751941003518346
0.8729643999083343,-0.16642298871155572,0.15721650301560025
0.8729643999083343,1.0751941003518346,0.15721650301560025
0.42791405907340374,-0.20048079291020193,-0.20985217658841318
0.42791405907340374,-0.20048079291020193,0.32711163977402336
0.42791405907340374,-0.20048079291020193,-0.3195216091795757
0.42791405907340374,-0.20048079291020193,1.2028936493513873
0.42791405907340374,-0.20048079291020193,-0.16642298871155572
0.42791405907340374,-0.20048079291020193,1.0751941003518346
0.42791405907340374,-0.20048079291020193,0.15721650301560025
0.42791405907340374,-0.20985217658841318,0.32711163977402336
0.42791405907340374,-0.20985217658841318,-0.3195216091795757
0.42791405907340374,-0.20985217658841318,1.2028936493513873
0.42791405907340374,-0.20985217658841318,-0.16642298871155572
0.42791405907340374,-0.20985217658841318,1.0751941003518346
0.42791405907340374,-0.20985217658841318,0.15721650301560025
0.42791405907340374,0.32711163977402336,1.0751941003518346
0.42791405907340374,0.32711163977402336,0.15721650301560025
0.42791405907340374,0.32711163977402336,-0.3195216091795757
0.42791405907340374,0.32711163977402336,1.2028936493513873
0.42791405907340374,0.32711163977402336,-0.16642298871155572
0.42791405907340374,-0.3195216091795757,1.0751941003518346
0.42791405907340374,-0.3195216091795757,0.15721650301560025
0.42791405907340374,-0.3195216091795757,1.2028936493513873
0.42791405907340374,-0.3195216091795757,-0.16642298871155572
0.42791405907340374,1.2028936493513873,1.0751941003518346
0.42791405907340374,1.2028936493513873,0.15721650301560025
0.42791405907340374,1.2028936493513873,-0.16642298871155572
0.42791405907340374,-0.16642298871155572,1.0751941003518346
0.42791405907340374,-0.16642298871155572,0.15721650301560025
0.42791405907340374,1.0751941003518346,0.15721650301560025
-0.20048079291020193,-0.20985217658841318,0.32711163977402336
-0.20048079291020193,-0.20985217658841318,-0.3195216091795757
-0.20048079291020193,-0.20985217658841318,1.2028936493513873
-0.20048079291020193,-0.20985217658841318,-0.16642298871155572
-0.20048079291020193,-0.20985217658841318,1.0751941003518346
-0.20048079291020193,-0.20985217658841318,0.15721650301560025
-0.20048079291020193,0.32711163977402336,1.0751941003518346
-0.20048079291020193,0.32711163977402336,0.15721650301560025
-0.20048079291020193,0.32711163977402336,-0.3195216091795757
-0.20048079291020193,0.32711163977402336,1.2028936493513873
-0.20048079291020193,0.32711163977402336,-0.16642298871155572
-0.20048079291020193,-0.3195216091795757,1.0751941003518346
-0.20048079291020193,-0.3195216091795757,0.15721650301560025
-0.20048079291020193,-0.3195216091795757,1.2028936493513873
-0.20048079291020193,-0.3195216091795757,-0.16642298871155572
-0.20048079291020193,1.2028936493513873,1.0751941003518346
-0.20048079291020193,1.2028936493513873,0.15721650301560025
-0.20048079291020193,1.2028936493513873,-0.16642298871155572
-0.20048079291020193,-0.16642298871155572,1.0751941003518346
-0.20048079291020193,-0.16642298871155572,0.15721650301560025
-0.20048079291020193,1.0751941003518346,0.15721650301560025
-0.20985217658841318,0.32711163977402336,1.0751941003518346
-0.20985217658841318,0.32711163977402336,0.15721650301560025
-0.20985217658841318,0.32711163977402336,-0.3195216091795757
-0.20985217658841318,0.32711163977402336,1.2028936493513873
-0.20985217658841318,0.32711163977402336,-0.16642298871155572
-0.20985217658841318,-0.3195216091795757,1.0751941003518346
-0.20985217658841318,-0.3195216091795757,0.15721650301560025
-0.20985217658841318,-0.3195216091795757,1.2028936493513873
-0.20985217658841318,-0.3195216091795757,-0.16642298871155572
-0.20985217658841318,1.2028936493513873,1.0751941003518346
-0.20985217658841318,1.2028936493513873,0.15721650301560025
-0.20985217658841318,1.2028936493513873,-0.16642298871155572
-0.20985217658841318,-0.16642298871155572,1.0751941003518346
-0.20985217658841318,-0.16642298871155572,0.15721650301560025
-0.20985217658841318,1.0751941003518346,0.15721650301560025
0.32711163977402336,1.0751941003518346,0.15721650301560025
0.32711163977402336,-0.3195216091795757,1.0751941003518346
0.32711163977402336,-0.3195216091795757,0.15721650301560025
0.32711163977402336,-0.3195216091795757,1.2028936493513873
0.32711163977402336,-0.3195216091795757,-0.16642298871155572
0.32711163977402336,1.2028936493513873,1.0751941003518346
0.32711163977402336,1.2028936493513873,0.15721650301560025
0.32711163977402336,1.2028936493513873,-0.16642298871155572
0.32711163977402336,-0.16642298871155572,1.0751941003518346
0.32711163977402336,-0.16642298871155572,0.15721650301560025
-0.3195216091795757,1.0751941003518346,0.15721650301560025
-0.3195216091795757,1.2028936493513873,1.0751941003518346
-0.3195216091795757,1.2028936493513873,0.15721650301560025
-0.3195216091795757,1.2028936493513873,-0.16642298871155572
-0.3195216091795757,-0.16642298871155572,1.0751941003518346
-0.3195216091795757,-0.16642298871155572,0.15721650301560025
1.2028936493513873,1.0751941003518346,0.15721650301560025
1.2028936493513873,-0.16642298871155572,1.0751941003518346
1.2028936493513873,-0.16642298871155572,0.15721650301560025
-0.16642298871155572,1.0751941003518346,0.15721650301560025
