0,1,2
0.687215076492052,-0.7672610501109565,0.6816399548136424
0.687215076492052,-0.7672610501109565,0.4698695603689564
0.687215076492052,-0.7672610501109565,-0.6884795657500864
0.687215076492052,-0.7672610501109565,0.6483604956369743
0.687215076492052,-0.7672610501109565,-0.4500890875127009
0.687215076492052,-0.7672610501109565,1.3222800223821456
0.687215076492052,-0.7672610501109565,-0.019665891340518323
0.687215076492052,-0.7672610501109565,-0.494943496352928
0.687215076492052,0.6816399548136424,0.4698695603689564
0.687215076492052,0.6816399548136424,-0.6884795657500864
0.687215076492052,0.6816399548136424,0.6483604956369743
0.687215076492052,0.6816399548136424,-0.4500890875127009
0.687215076492052,0.6816399548136424,1.3222800223821456
0.687215076492052,0.6816399548136424,-0.019665891340518323
0.687215076492052,0.6816399548136424,-0.494943496352928
0.687215076492052,0.4698695603689564,-0.6884795657500864
0.687215076492052,0.4698695603689564,0.6483604956369743
0.687215076492052,0.4698695603689564,-0.4500890875127009
0.687215076492052,0.4698695603689564,1.3222800223821456
0.687215076492052,0.4698695603689564,-0.019665891340518323
0.687215076492052,0.4698695603689564,-0.494943496352928
0.687215076492052,-0.6884795657500864,-0.019665891340518323
0.687215076492052,-0.6884795657500864,-0.494943496352928
0.687215076492052,-0.6884795657500864,0.6483604956369743
0.687215076492052,-0.6884795657500864,-0.4500890875127009
0.687215076492052,-0.6884795657500864,1.3222800223821456
0.687215076492052,0.6483604956369743,-0.019665891340518323
0.687215076492052,0.6483604956369743,-0.494943496352928
0.687215076492052,0.6483604956369743,-0.4500890875127009
0.687215076492052,0.6483604956369743,1.3222800223821456
0.687215076492052,-0.4500890875127009,-0.019665891340518323
0.687215076492052,-0.4500890875127009,-0.494943496352928
0.687215076492052,-0.4500890875127009,1.3222800223821456
0.687215076492052,1.3222800223821456,-0.019665891340518323
0.687215076492052,1.3222800223821456,-0.494943496352928
0.687215076492052,-0.019665891340518323,-0.494943496352928
-0.7672610501109565,0.6816399548136424,0.4698695603689564
-0.7672610501109565,0.6816399548136424,-0.6884795657500864
-0.7672610501109565,0.6816399548136424,0.6483604956369743
-0.7672610501109565,0.6816399548136424,-0.4500890875127009
-0.7672610501109565,0.6816399548136424,1.3222800223821456
-0.7672610501109565,0.6816399548136424,-0.019665891340518323
-0.7672610501109565,0.6816399548136424,-0.494943496352928
-0.7672610501109565,0.4698695603689564,-0.6884795657500864
-0.7672610501109565,0.4698695603689564,0.6483604956369743
-0.7672610501109565,0.4698695603689564,-0.4500890875127009
-0.7672610501109565,0.4698695603689564,1.3222800223821456
-0.7672610501109565,0.4698695603689564,-0.019665891340518323
-0.7672610501109565,0.4698695603689564,-0.494943496352928
-0.7672610501109565,-0.6884795657500864,-0.019665891340518323
-0.7672610501109565,-0.6884795657500864,-0.494943496352928
-0.7672610501109565,-0.6884795657500864,0.6483604956369743
-0.7672610501109565,-0.6884795657500864,-0.4500890875127009
-0.7672610501109565,-0.6884795657500864,1.3222800223821456
-0.7672610501109565,0.6483604956369743,-0.019665891340518323
-0.7672610501109565,0.6483604956369743,-0.494943496352928
-0.7672610501109565,0.6483604956369743,-0.4500890875127009
-0.7672610501109565,0.6483604956369743,1.3222800223821456
-0.7672610501109565,-0.4500890875127009,-0.019665891340518323
-0.7672610501109565,-0.4500890875127009,-0.494943496352928
-0.7672610501109565,-0.4500890875127009,1.3222800223821456
-0.7672610501109565,1.3222800223821456,-0.019665891340518323
-0.7672610501109565,1.3222800223821456,-0.494943496352928
-0.7672610501109565,-0.019665891340518323,-0.494943496352928
0.6816399548136424,0.4698695603689564,-0.6884795657500864
0.6816399548136424,0.4698695603689564,0.6483604956369743
0.6816399548136424,0.4698695603689564,-0.4500890875127009
0.6816399548136424,0.4698695603689564,1.3222800223821456
0.6816399548136424,0.4698695603689564,-0.019665891340518323
0.6816399548136424,0.4698695603689564,-0.494943496352928
0.6816399548136424,-0.6884795657500864,-0.019665891340518323
0.6816399548136424,-0.6884795657500864,-0.494943496352928
0.6816399548136424,-0.6884795657500864,0.6483604956369743
0.6816399548136424,-0.6884795657500864,-0.4500890875127009
0.6816399548136424,-0.6884795657500864,1.3222800223821456
0.6816399548136424,0.6483604956369743,-0.019665891340518323
0.6816399548136424,0.6483604956369743,-0.494943496352928
0.6816399548136424,0.6483604956369743,-0.4500890875127009
0.6816399548136424,0.6483604956369743,1.3222800223821456
0.6816399548136424,-0.4500890875127009,-0.019665891340518323
0.6816399548136424,-0.4500890875127009,-0.494943496352928
0.6816399548136424,-0.4500890875127009,1.3222800223821456
0.6816399548136424,1.3222800223821456,-0.019665891340518323
0.6816399548136424,1.3222800223821456,-0.494943496352928
0.6816399548136424,-0.019665891340518323,-0.494943496352928
0.4698695603689564,-0.6884795657500864,-0.019665891340518323
0.4698695603689564,-0.6884795657500864,-0.494943496352928
0.4698695603689564,-0.6884795657500864,0.6483604956369743
0.4698695603689564,-0.6884795657500864,-0.4500890875127009
0.4698695603689564,-0.6884795657500864,1.3222800223821456
0.4698695603689564,0.6483604956369743,-0.019665891340518323
0.4698695603689564,0.6483604956369743,-0.494943496352928
0.4698695603689564,0.6483604956369743,-0.4500890875127009
0.4698695603689564,0.6483604956369743,1.3222800223821456
0.4698695603689564,-0.4500890875127009,-0.019665891340518323
0.4698695603689564,-0.4500890875127009,-0.494943496352928
0.4698695603689564,-0.4500890875127009,1.3222800223821456
0.4698695603689564,1.3222800223821456,-0.019665891340518323
0.4698695603689564,1.3222800223821456,-0.494943496352928
0.4698695603689564,-0.019665891340518323,-0.494943496352928
-0.6884795657500864,-0.019665891340518323,-0.494943496352928
-0.6884795657500864,0.6483604956369743,-0.019665891340518323
-0.6884795657500864,0.6483604956369743,-0.494943496352928
-0.6884795657500864,0.6483604956369743,-0.4500890875127009
-0.6884795657500864,0.6483604956369743,1.3222800223821456
-0.6884795657500864,-0.4500890875127009,-0.019665891340518323
-0.6884795657500864,-0.4500890875127009,-0.494943496352928
-0.6884795657500864,-0.4500890875127009,1.3222800223821456
-0.6884795657500864,1.3222800223821456,-0.019665891340518323
-0.6884795657500864,1.3222800223821456,-0.494943496352928
0.6483604956369743,-0.019665891340518323,-0.494943496352928
0.6483604956369743,-0.4500890875127009,-0.019665891340518323
0.6483604956369743,-0.4500890875127009,-0.494943496352928
0.6483604956369743,-0.4500890875127009,1.3222800223821456
0.6483604956369743,1.3222800223821456,-0.019665891340518323
0.6483604956369743,1.3222800223821456,-0.494943496352928
-0.4500890875127009,-0.019665891340518323,-0.494943496352928
-0.4500890875127009,1.3222800223821456,-0.019665891340518323
-0.4500890875127009,1.3222800223821456,-0.494943496352928
1.3222800223821456,-0.019665891340518323,-0.494943496352928
