0,1,2
1.015903975904979,-1.1659633433292071,0.34472128085100895
1.015903975904979,-1.1659633433292071,1.0850720320369756
1.015903975904979,-1.1659633433292071,2.245885529985019
1.015903975904979,-1.1659633433292071,1.3936687662716418
1.015903975904979,-1.1659633433292071,-1.2426675538056167
1.015903975904979,-1.1659633433292071,0.8339013962206763
1.015903975904979,-1.1659633433292071,1.3473146612681457
1.015903975904979,-1.1659633433292071,0.19933086818975132
1.015903975904979,0.34472128085100895,1.0850720320369756
1.015903975904979,0.34472128085100895,2.245885529985019
1.015903975904979,0.34472128085100895,1.3936687662716418
1.015903975904979,0.34472128085100895,-1.2426675538056167
1.015903975904979,0.34472128085100895,0.8339013962206763
1.015903975904979,0.34472128085100895,1.3473146612681457
1.015903975904979,0.34472128085100895,0.19933086818975132
1.015903975904979,1.0850720320369756,2.245885529985019
1.015903975904979,1.0850720320369756,1.3936687662716418
1.015903975904979,1.0850720320369756,-1.2426675538056167
1.015903975904979,1.0850720320369756,0.8339013962206763
1.015903975904979,1.0850720320369756,1.3473146612681457
1.015903975904979,1.0850720320369756,0.19933086818975132
1.015903975904979,2.245885529985019,1.3473146612681457
1.015903975904979,2.245885529985019,0.19933086818975132
1.015903975904979,2.245885529985019,1.3936687662716418
1.015903975904979,2.245885529985019,-1.2426675538056167
1.015903975904979,2.245885529985019,0.8339013962206763
1.015903975904979,1.3936687662716418,1.3473146612681457
1.015903975904979,1.3936687662716418,0.19933086818975132
1.015903975904979,1.3936687662716418,-1.2426675538056167
1.015903975904979,1.3936687662716418,0.8339013962206763
1.015903975904979,-1.2426675538056167,1.3473146612681457
1.015903975904979,-1.2426675538056167,0.19933086818975132
1.015903975904979,-1.2426675538056167,0.8339013962206763
1.015903975904979,0.8339013962206763,1.3473146612681457
1.015903975904979,0.8339013962206763,0.19933086818975132
1.015903975904979,1.3473146612681457,0.19933086818975132
-1.1659633433292071,0.34472128085100895,1.0850720320369756
-1.1659633433292071,0.34472128085100895,2.245885529985019
-1.1659633433292071,0.34472128085100895,1.3936687662716418
-1.1659633433292071,0.34472128085100895,-1.2426675538056167
-1.1659633433292071,0.34472128085100895,0.8339013962206763
-1.1659633433292071,0.34472128085100895,1.3473146612681457
-1.1659633433292071,0.34472128085100895,0.19933086818975132
-1.1659633433292071,1.0850720320369756,2.245885529985019
-1.1659633433292071,1.0850720320369756,1.3936687662716418
-1.1659633433292071,1.0850720320369756,-1.2426675538056167
-1.1659633433292071,1.0850720320369756,0.8339013962206763
-1.1659633433292071,1.0850720320369756,1.3473146612681457
-1.1659633433292071,1.0850720320369756,0.19933086818975132
-1.1659633433292071,2.245885529985019,1.3473146612681457
-1.1659633433292071,2.245885529985019,0.19933086818975132
-1.1659633433292071,2.245885529985019,1.3936687662716418
-1.1659633433292071,2.245885529985019,-1.2426675538056167
-1.1659633433292071,2.245885529985019,0.8339013962206763
-1.1659633433292071,1.3936687662716418,1.3473146612681457
-1.1659633433292071,1.3936687662716418,0.19933086818975132
-1.1659633433292071,1.3936687662716418,-1.2426675538056167
-1.1659633433292071,1.3936687662716418,0.8339013962206763
-1.1659633433292071,-1.2426675538056167,1.3473146612681457
-1.1659633433292071,-1.2426675538056167,0.19933086818975132
-1.1659633433292071,-1.2426675538056167,0.8339013962206763
-1.1659633433292071,0.8339013962206763,1.3473146612681457
-1.1659633433292071,0.8339013962206763,0.19933086818975132
-1.1659633433292071,1.3473146612681457,0.19933086818975132
0.34472128085100895,1.0850720320369756,2.245885529985019
0.34472128085100895,1.0850720320369756,1.3936687662716418
0.34472128085100895,1.0850720320369756,-1.2426675538056167
0.34472128085100895,1.0850720320369756,0.8339013962206763
0.34472128085100895,1.0850720320369756,1.3473146612681457
0.34472128085100895,1.0850720320369756,0.19933086818975132
0.34472128085100895,2.245885529985019,1.3473146612681457
0.34472128085100895,2.245885529985019,0.19933086818975132
0.34472128085100895,2.245885529985019,1.3936687662716418
0.34472128085100895,2.245885529985019,-1.2426675538056167
0.34472128085100895,2.245885529985019,0.8339013962206763
0.34472128085100895,1.3936687662716418,1.3473146612681457
0.34472128085100895,1.3936687662716418,0.19933086818975132
0.34472128085100895,1.3936687662716418,-1.2426675538056167
0.34472128085100895,1.3936687662716418,0.8339013962206763
0.34472128085100895,-1.2426675538056167,1.3473146612681457
0.34472128085100895,-1.2426675538056167,0.19933086818975132
0.34472128085100895,-1.2426675538056167,0.8339013962206763
0.34472128085100895,0.8339013962206763,1.3473146612681457
0.34472128085100895,0.8339013962206763,0.19933086818975132
0.34472128085100895,1.3473146612681457,0.19933086818975132
1.0850720320369756,2.245885529985019,1.3473146612681457
1.0850720320369756,2.245885529985019,0.19933086818975132
1.0850720320369756,2.245885529985019,1.3936687662716418
1.0850720320369756,2.245885529985019,-1.2426675538056167
1.0850720320369756,2.245885529985019,0.8339013962206763
1.0850720320369756,1.3936687662716418,1.3473146612681457
1.0850720320369756,1.3936687662716418,0.19933086818975132
1.0850720320369756,1.3936687662716418,-1.2426675538056167
1.0850720320369756,1.3936687662716418,0.8339013962206763
1.0850720320369756,-1.2426675538056167,1.3473146612681457
1.0850720320369756,-1.2426675538056167,0.19933086818975132
1.0850720320369756,-1.2426675538056167,0.8339013962206763
1.0850720320369756,0.8339013962206763,1.3473146612681457
1.0850720320369756,0.8339013962206763,0.19933086818975132
1.0850720320369756,1.3473146612681457,0.19933086818975132
2.245885529985019,1.3473146612681457,0.19933086818975132
2.245885529985019,1.3936687662716418,1.3473146612681457
2.245885529985019,1.3936687662716418,0.19933086818975132
2.245885529985019,1.3936687662716418,-1.2426675538056167
2.245885529985019,1.3936687662716418,0.8339013962206763
2.245885529985019,-1.2426675538056167,1.3473146612681457
2.245885529985019,-1.2426675538056167,0.19933086818975132
2.245885529985019,-1.2426675538056167,0.8339013962206763
2.245885529985019,0.8339013962206763,1.3473146612681457
2.245885529985019,0.8339013962206763,0.19933086818975132
1.3936687662716418,1.3473146612681457,0.19933086818975132
1.3936687662716418,-1.2426675538056167,1.3473146612681457
1.3936687662716418,-1.2426675538056167,0.19933086818975132
1.3936687662716418,-1.2426675538056167,0.8339013962206763
1.3936687662716418,0.8339013962206763,1.3473146612681457
1.3936687662716418,0.8339013962206763,0.19933086818975132
-1.2426675538056167,1.3473146612681457,0.19933086818975132
-1.2426675538056167,0.8339013962206763,1.3473146612681457
-1.2426675538056167,0.8339013962206763,0.19933086818975132
0.8339013962206763,1.3473146612681457,0.19933086818975132
