0,1,2
-1.876380863808423,-0.6149390078317445,0.4151710850310724
-1.876380863808423,-0.6149390078317445,0.5962826559478664
-1.876380863808423,-0.6149390078317445,-1.2300162124077143
-1.876380863808423,-0.6149390078317445,-1.489099475003765
-1.876380863808423,-0.6149390078317445,0.6749145303215313
-1.876380863808423,-0.6149390078317445,0.5101227545316298
-1.876380863808423,-0.6149390078317445,0.5733046374477855
-1.876380863808423,-0.6149390078317445,-1.3890991945065099
-1.876380863808423,0.4151710850310724,0.5962826559478664
-1.876380863808423,0.4151710850310724,-1.2300162124077143
-1.876380863808423,0.4151710850310724,-1.489099475003765
-1.876380863808423,0.4151710850310724,0.6749145303215313
-1.876380863808423,0.4151710850310724,0.5101227545316298
-1.876380863808423,0.4151710850310724,0.5733046374477855
-1.876380863808423,0.4151710850310724,-1.3890991945065099
-1.876380863808423,0.5962826559478664,-1.2300162124077143
-1.876380863808423,0.5962826559478664,-1.489099475003765
-1.876380863808423,0.5962826559478664,0.6749145303215313
-1.876380863808423,0.5962826559478664,0.5101227545316298
-1.876380863808423,0.5962826559478664,0.5733046374477855
-1.876380863808423,0.5962826559478664,-1.3890991945065099
-1.876380863808423,-1.2300162124077143,0.5733046374477855
-1.876380863808423,-1.2300162124077143,-1.3890991945065099
-1.876380863808423,-1.2300162124077143,-1.489099475003765
-1.876380863808423,-1.2300162124077143,0.6749145303215313
-1.876380863808423,-1.2300162124077143,0.5101227545316298
-1.876380863808423,-1.489099475003765,0.5733046374477855
-1.876380863808423,-1.489099475003765,-1.3890991945065099
-1.876380863808423,-1.489099475003765,0.6749145303215313
-1.876380863808423,-1.489099475003765,0.5101227545316298
-1.876380863808423,0.6749145303215313,0.5733046374477855
-1.876380863808423,0.6749145303215313,-1.3890991945065099
-1.876380863808423,0.6749145303215313,0.5101227545316298
-1.876380863808423,0.5101227545316298,0.5733046374477855
-1.876380863808423,0.5101227545316298,-1.3890991945065099
-1.876380863808423,0.5733046374477855,-1.3890991945065099
-0.6149390078317445,0.4151710850310724,0.5962826559478664
-0.6149390078317445,0.4151710850310724,-1.2300162124077143
-0.6149390078317445,0.4151710850310724,-1.489099475003765
-0.6149390078317445,0.4151710850310724,0.6749145303215313
-0.6149390078317445,0.4151710850310724,0.5101227545316298
-0.6149390078317445,0.4151710850310724,0.5733046374477855
-0.6149390078317445,0.4151710850310724,-1.3890991945065099
-0.6149390078317445,0.5962826559478664,-1.2300162124077143
-0.6149390078317445,0.5962826559478664,-1.489099475003765
-0.6149390078317445,0.5962826559478664,0.6749145303215313
-0.6149390078317445,0.5962826559478664,0.5101227545316298
-0.6149390078317445,0.5962826559478664,0.5733046374477855
-0.6149390078317445,0.5962826559478664,-1.3890991945065099
-0.6149390078317445,-1.2300162124077143,0.5733046374477855
-0.6149390078317445,-1.2300162124077143,-1.3890991945065099
-0.6149390078317445,-1.2300162124077143,-1.489099475003765
-0.6149390078317445,-1.2300162124077143,0.6749145303215313
-0.6149390078317445,-1.2300162124077143,0.5101227545316298
-0.6149390078317445,-1.489099475003765,0.5733046374477855
-0.6149390078317445,-1.489099475003765,-1.3890991945065099
-0.6149390078317445,-1.489099475003765,0.6749145303215313
-0.6149390078317445,-1.489099475003765,0.5101227545316298
-0.6149390078317445,0.6749145303215313,0.5733046374477855
-0.6149390078317445,0.6749145303215313,-1.3890991945065099
-0.6149390078317445,0.6749145303215313,0.5101227545316298
-0.6149390078317445,0.5101227545316298,0.5733046374477855
-0.6149390078317445,0.5101227545316298,-1.3890991945065099
-0.6149390078317445,0.5733046374477855,-1.3890991945065099
0.4151710850310724,0.5962826559478664,-1.2300162124077143
0.4151710850310724,0.5962826559478664,-1.489099475003765
0.4151710850310724,0.5962826559478664,0.6749145303215313
0.4151710850310724,0.5962826559478664,0.5101227545316298
0.4151710850310724,0.5962826559478664,0.5733046374477855
0.4151710850310724,0.5962826559478664,-1.3890991945065099
0.4151710850310724,-1.2300162124077143,0.5733046374477855
0.4151710850310724,-1.2300162124077143,-1.3890991945065099
0.4151710850310724,-1.2300162124077143,-1.489099475003765
0.4151710850310724,-1.2300162124077143,0.6749145303215313
0.4151710850310724,-1.2300162124077143,0.5101227545316298
0.4151710850310724,-1.489099475003765,0.5733046374477855
0.4151710850310724,-1.489099475003765,-1.3890991945065099
0.4151710850310724,-1.489099475003765,0.6749145303215313
0.4151710850310724,-1.489099475003765,0.5101227545316298
0.4151710850310724,0.6749145303215313,0.5733046374477855
0.4151710850310724,0.6749145303215313,-1.3890991945065099
0.4151710850310724,0.6749145303215313,0.5101227545316298
0.4151710850310724,0.5101227545316298,0.5733046374477855
0.4151710850310724,0.5101227545316298,-1.3890991945065099
0.4151710850310724,0.5733046374477855,-1.3890991945065099
0.5962826559478664,-1.2300162124077143,0.5733046374477855
0.5962826559478664,-1.2300162124077143,-1.3890991945065099
0.5962826559478664,-1.2300162124077143,-1.489099475003765
0.5962826559478664,-1.2300162124077143,0.6749145303215313
0.5962826559478664,-1.2300162124077143,0.5101227545316298
0.5962826559478664,-1.489099475003765,0.5733046374477855
0.5962826559478664,-1.489099475003765,-1.3890991945065099
0.5962826559478664,-1.489099475003765,0.6749145303215313
0.5962826559478664,-1.489099475003765,0.5101227545316298
0.5962826559478664,0.6749145303215313,0.5733046374477855
0.5962826559478664,0.6749145303215313,-1.3890991945065099
0.5962826559478664,0.6749145303215313,0.5101227545316298
0.5962826559478664,0.5101227545316298,0.5733046374477855
0.5962826559478664,0.5101227545316298,-1.3890991945065099
0.5962826559478664,0.5733046374477855,-1.3890991945065099
-1.2300162124077143,0.5733046374477855,-1.3890991945065099
-1.2300162124077143,-1.489099475003765,0.5733046374477855
-1.2300162124077143,-1.489099475003765,-1.3890991945065099
-1.2300162124077143,-1.489099475003765,0.6749145303215313
-1.2300162124077143,-1.489099475003765,0.5101227545316298
-1.2300162124077143,0.6749145303215313,0.5733046374477855
-1.2300162124077143,0.6749145303215313,-1.3890991945065099
-1.2300162124077143,0.6749145303215313,0.5101227545316298
-1.2300162124077143,0.5101227545316298,0.5733046374477855
-1.2300162124077143,0.5101227545316298,-1.3890991945065099
-1.489099475003765,0.5733046374477855,-1.3890991945065099
-1.489099475003765,0.6749145303215313,0.5733046374477855
-1.489099475003765,0.6749145303215313,-1.3890991945065099
-1.489099475003765,0.6749145303215313,0.5101227545316298
-1.489099475003765,0.5101227545316298,0.5733046374477855
-1.489099475003765,0.5101227545316298,-1.3890991945065099
0.6749145303215313,0.5733046374477855,-1.3890991945065099
0.6749145303215313,0.5101227545316298,0.5733046374477855
0.6749145303215313,0.5101227545316298,-1.3890991945065099
0.5101227545316298,0.5733046374477855,-1.3890991945065099
