0,1,2
0.21077183364814375,-0.2612193664084801,-1.1054715764381793
0.21077183364814375,-0.2612193664084801,-0.9880484343513735
0.21077183364814375,-0.2612193664084801,0.32483203269997213
0.21077183364814375,-0.2612193664084801,-1.849745711611123
0.21077183364814375,-0.2612193664084801,0.35725563709231933
0.21077183364814375,-0.2612193664084801,0.7711735877504756
0.21077183364814375,-0.2612193664084801,-1.4261363468939614
0.21077183364814375,-0.2612193664084801,0.10504232622366537
0.21077183364814375,-1.1054715764381793,-0.9880484343513735
0.21077183364814375,-1.1054715764381793,0.32483203269997213
0.21077183364814375,-1.1054715764381793,-1.849745711611123
0.21077183364814375,-1.1054715764381793,0.35725563709231933
0.21077183364814375,-1.1054715764381793,0.7711735877504756
0.21077183364814375,-1.1054715764381793,-1.4261363468939614
0.21077183364814375,-1.1054715764381793,0.10504232622366537
0.21077183364814375,-0.9880484343513735,0.32483203269997213
0.21077183364814375,-0.9880484343513735,-1.849745711611123
0.21077183364814375,-0.9880484343513735,0.35725563709231933
0.21077183364814375,-0.9880484343513735,0.7711735877504756
0.21077183364814375,-0.9880484343513735,-1.4261363468939614
0.21077183364814375,-0.9880484343513735,0.10504232622366537
0.21077183364814375,0.32483203269997213,-1.4261363468939614
0.21077183364814375,0.32483203269997213,0.10504232622366537
0.21077183364814375,0.32483203269997213,-1.849745711611123
0.21077183364814375,0.32483203269997213,0.35725563709231933
0.21077183364814375,0.32483203269997213,0.7711735877504756
0.21077183364814375,-1.849745711611123,-1.4261363468939614
0.21077183364814375,-1.849745711611123,0.10504232622366537
0.21077183364814375,-1.849745711611123,0.35725563709231933
0.21077183364814375,-1.849745711611123,0.7711735877504756
0.21077183364814375,0.35725563709231933,-1.4261363468939614
0.21077183364814375,0.35725563709231933,0.10504232622366537
0.21077183364814375,0.35725563709231933,0.7711735877504756
0.21077183364814375,0.7711735877504756,-1.4261363468939614
0.21077183364814375,0.7711735877504756,0.10504232622366537
0.21077183364814375,-1.4261363468939614,0.10504232622366537
-0.2612193664084801,-1.1054715764381793,-0.9880484343513735
-0.2612193664084801,-1.1054715764381793,0.32483203269997213
-0.2612193664084801,-1.1054715764381793,-1.849745711611123
-0.2612193664084801,-1.1054715764381793,0.35725563709231933
-0.2612193664084801,-1.1054715764381793,0.7711735877504756
-0.2612193664084801,-1.1054715764381793,-1.4261363468939614
-0.2612193664084801,-1.1054715764381793,0.10504232622366537
-0.2612193664084801,-0.9880484343513735,0.32483203269997213
-0.2612193664084801,-0.9880484343513735,-1.849745711611123
-0.2612193664084801,-0.9880484343513735,0.35725563709231933
-0.2612193664084801,-0.9880484343513735,0.7711735877504756
-0.2612193664084801,-0.9880484343513735,-1.4261363468939614
-0.2612193664084801,-0.9880484343513735,0.10504232622366537
-0.2612193664084801,0.32483203269997213,-1.4261363468939614
-0.2612193664084801,0.32483203269997213,0.10504232622366537
-0.2612193664084801,0.32483203269997213,-1.849745711611123
-0.2612193664084801,0.32483203269997213,0.35725563709231933
-0.2612193664084801,0.32483203269997213,0.7711735877504756
-0.2612193664084801,-1.849745711611123,-1.4261363468939614
-0.2612193664084801,-1.849745711611123,0.10504232622366537
-0.2612193664084801,-1.849745711611123,0.35725563709231933
-0.2612193664084801,-1.849745711611123,0.7711735877504756
-0.2612193664084801,0.35725563709231933,-1.4261363468939614
-0.2612193664084801,0.35725563709231933,0.10504232622366537
-0.2612193664084801,0.35725563709231933,0.7711735877504756
-0.2612193664084801,0.7711735877504756,-1.4261363468939614
-0.2612193664084801,0.7711735877504756,0.10504232622366537
-0.2612193664084801,-1.4261363468939614,0.10504232622366537
-1.1054715764381793,-0.9880484343513735,0.32483203269997213
-1.1054715764381793,-0.9880484343513735,-1.849745711611123
-1.1054715764381793,-0.9880484343513735,0.35725563709231933
-1.1054715764381793,-0.9880484343513735,0.7711735877504756
-1.1054715764381793,-0.9880484343513735,-1.4261363468939614
-1.1054715764381793,-0.9880484343513735,0.10504232622366537
-1.1054715764381793,0.32483203269997213,-1.4261363468939614
-1.1054715764381793,0.32483203269997213,0.10504232622366537
-1.1054715764381793,0.32483203269997213,-1.849745711611123
-1.1054715764381793,0.32483203269997213,0.35725563709231933
-1.1054715764381793,0.32483203269997213,0.7711735877504756
-1.1054715764381793,-1.849745711611123,-1.4261363468939614
-1.1054715764381793,-1.849745711611123,0.10504232622366537
-1.1054715764381793,-1.849745711611123,0.35725563709231933
-1.1054715764381793,-1.849745711611123,0.7711735877504756
-1.1054715764381793,0.35725563709231933,-1.4261363468939614
-1.1054715764381793,0.35725563709231933,0.10504232622366537
-1.1054715764381793,0.35725563709231933,0.7711735877504756
-1.1054715764381793,0.7711735877504756,-1.4261363468939614
-1.1054715764381793,0.7711735877504756,0.10504232622366537
-1.1054715764381793,-1.4261363468939614,0.10504232622366537
-0.9880484343513735,0.32483203269997213,-1.4261363468939614
-0.9880484343513735,0.32483203269997213,0.10504232622366537
-0.9880484343513735,0.32483203269997213,-1.849745711611123
-0.9880484343513735,0.32483203269997213,0.35725563709231933
-0.9880484343513735,0.32483203269997213,0.7711735877504756
-0.9880484343513735,-1.849745711611123,-1.4261363468939614
-0.9880484343513735,-1.849745711611123,0.10504232622366537
-0.9880484343513735,-1.849745711611123,0.35725563709231933
-0.9880484343513735,-1.849745711611123,0.7711735877504756
-0.9880484343513735,0.35725563709231933,-1.4261363468939614
-0.9880484343513735,0.35725563709231933,0.10504232622366537
-0.9880484343513735,0.35725563709231933,0.7711735877504756
-0.9880484343513735,0.7711735877504756,-1.4261363468939614
-0.9880484343513735,0.7711735877504756,0.10504232622366537
-0.9880484343513735,-1.4261363468939614,0.10504232622366537
0.32483203269997213,-1.4261363468939614,0.10504232622366537
0.32483203269997213,-1.849745711611123,-1.4261363468939614
0.32483203269997213,-1.849745711611123,0.10504232622366537
0.32483203269997213,-1.849745711611123,0.35725563709231933
0.32483203269997213,-1.849745711611123,0.7711735877504756
0.32483203269997213,0.35725563709231933,-1.4261363468939614
0.32483203269997213,0.35725563709231933,0.10504232622366537
0.32483203269997213,0.35725563709231933,0.7711735877504756
0.32483203269997213,0.7711735877504756,-1.4261363468939614
0.32483203269997213,0.7711735877504756,0.10504232622366537
-1.849745711611123,-1.4261363468939614,0.10504232622366537
-1.849745711611123,0.35725563709231933,-1.4261363468939614
-1.849745711611123,0.35725563709231933,0.10504232622366537
-1.849745711611123,0.35725563709231933,0.7711735877504756
-1.849745711611123,0.7711735877504756,-1.4261363468939614
-1.849745711611123,0.7711735877504756,0.10504232622366537
0.35725563709231933,-1.4261363468939614,0.10504232622366537
0.35725563709231933,0.7711735877504756,-1.4261363468939614
0.35725563709231933,0.7711735877504756,0.10504232622366537
0.7711735877504756,-1.4261363468939614,0.10504232622366537
