0,1,2
-0.12842257446828567,0.1764925871276789,0.0976194713884778
-0.12842257446828567,0.1764925871276789,-0.264785393236193
-0.12842257446828567,0.1764925871276789,1.1547066136692643
-0.12842257446828567,0.1764925871276789,-0.29225684814377073
-0.12842257446828567,0.1764925871276789,-0.634626366886053
-0.12842257446828567,0.1764925871276789,-0.8568776067235228
-0.12842257446828567,0.1764925871276789,-0.020052207241915677
-0.12842257446828567,0.1764925871276789,-1.323974165729432
-0.12842257446828567,0.0976194713884778,-0.264785393236193
-0.12842257446828567,0.0976194713884778,1.1547066136692643
-0.12842257446828567,0.0976194713884778,-0.29225684814377073
-0.12842257446828567,0.0976194713884778,-0.634626366886053
-0.12842257446828567,0.0976194713884778,-0.8568776067235228
-0.12842257446828567,0.0976194713884778,-0.020052207241915677
-0.12842257446828567,0.0976194713884778,-1.323974165729432
-0.12842257446828567,-0.264785393236193,1.1547066136692643
-0.12842257446828567,-0.264785393236193,-0.29225684814377073
-0.12842257446828567,-0.264785393236193,-0.634626366886053
-0.12842257446828567,-0.264785393236193,-0.8568776067235228
-0.12842257446828567,-0.264785393236193,-0.020052207241915677
-0.12842257446828567,-0.264785393236193,-1.323974165729432
-0.12842257446828567,1.1547066136692643,-0.020052207241915677
-0.12842257446828567,1.1547066136692643,-1.323974165729432
-0.12842257446828567,1.1547066136692643,-0.29225684814377073
-0.12842257446828567,1.1547066136692643,-0.634626366886053
-0.12842257446828567,1.1547066136692643,-0.8568776067235228
-0.12842257446828567,-0.29225684814377073,-0.020052207241915677
-0.12842257446828567,-0.29225684814377073,-1.323974165729432
-0.12842257446828567,-0.29225684814377073,-0.634626366886053
-0.12842257446828567,-0.29225684814377073,-0.8568776067235228
-0.12842257446828567,-0.634626366886053,-0.020052207241915677
-0.12842257446828567,-0.634626366886053,-1.323974165729432
-0.12842257446828567,-0.634626366886053,-0.8568776067235228
-0.12842257446828567,-0.8568776067235228,-0.020052207241915677
-0.12842257446828567,-0.8568776067235228,-1.323974165729432
-0.12842257446828567,-0.020052207241915677,-1.323974165729432
0.1764925871276789,0.0976194713884778,-0.264785393236193
0.1764925871276789,0.0976194713884778,1.1547066136692643
0.1764925871276789,0.0976194713884778,-0.29225684814377073
0.1764925871276789,0.0976194713884778,-0.634626366886053
0.1764925871276789,0.0976194713884778,-0.8568776067235228
0.1764925871276789,0.0976194713884778,-0.020052207241915677
0.1764925871276789,0.0976194713884778,-1.323974165729432
0.1764925871276789,-0.264785393236193,1.1547066136692643
0.1764925871276789,-0.264785393236193,-0.29225684814377073
0.1764925871276789,-0.264785393236193,-0.634626366886053
0.1764925871276789,-0.264785393236193,-0.8568776067235228
0.1764925871276789,-0.264785393236193,-0.020052207241915677
0.1764925871276789,-0.264785393236193,-1.323974165729432
0.1764925871276789,1.1547066136692643,-0.020052207241915677
0.1764925871276789,1.1547066136692643,-1.323974165729432
0.1764925871276789,1.1547066136692643,-0.29225684814377073
0.1764925871276789,1.1547066136692643,-0.634626366886053
0.1764925871276789,1.1547066136692643,-0.8568776067235228
0.1764925871276789,-0.29225684814377073,-0.020052207241915677
0.1764925871276789,-0.29225684814377073,-1.323974165729432
0.1764925871276789,-0.29225684814377073,-0.634626366886053
0.1764925871276789,-0.29225684814377073,-0.8568776067235228
0.1764925871276789,-0.634626366886053,-0.020052207241915677
0.1764925871276789,-0.634626366886053,-1.323974165729432
0.1764925871276789,-0.634626366886053,-0.8568776067235228
0.1764925871276789,-0.8568776067235228,-0.020052207241915677
0.1764925871276789,-0.8568776067235228,-1.323974165729432
0.1764925871276789,-0.020052207241915677,-1.323974165729432
0.0976194713884778,-0.264785393236193,1.1547066136692643
0.0976194713884778,-0.264785393236193,-0.29225684814377073
0.0976194713884778,-0.264785393236193,-0.634626366886053
0.0976194713884778,-0.264785393236193,-0.8568776067235228
0.0976194713884778,-0.264785393236193,-0.020052207241915677
0.0976194713884778,-0.264785393236193,-1.323974165729432
0.0976194713884778,1.1547066136692643,-0.020052207241915677
0.0976194713884778,1.1547066136692643,-1.323974165729432
0.0976194713884778,1.1547066136692643,-0.29225684814377073
0.0976194713884778,1.1547066136692643,-0.634626366886053
0.0976194713884778,1.1547066136692643,-0.8568776067235228
0.0976194713884778,-0.29225684814377073,-0.020052207241915677
0.0976194713884778,-0.29225684814377073,-1.323974165729432
0.0976194713884778,-0.29225684814377073,-0.634626366886053
0.0976194713884778,-0.29225684814377073,-0.8568776067235228
0.0976194713884778,-0.634626366886053,-0.020052207241915677
0.0976194713884778,-0.634626366886053,-1.323974165729432
0.0976194713884778,-0.634626366886053,-0.8568776067235228
0.0976194713884778,-0.8568776067235228,-0.020052207241915677
0.0976194713884778,-0.8568776067235228,-1.323974165729432
0.0976194713884778,-0.020052207241915677,-1.323974165729432
-0.264785393236193,1.1547066136692643,-0.020052207241915677
-0.264785393236193,1.1547066136692643,-1.323974165729432
-0.264785393236193,1.1547066136692643,-0.29225684814377073
-0.264785393236193,1.1547066136692643,-0.634626366886053
-0.264785393236193,1.1547066136692643,-0.8568776067235228
-0.264785393236193,-0.29225684814377073,-0.020052207241915677
-0.264785393236193,-0.29225684814377073,-1.323974165729432
-0.264785393236193,-0.29225684814377073,-0.634626366886053
-0.264785393236193,-0.29225684814377073,-0.8568776067235228
-0.264785393236193,-0.634626366886053,-0.020052207241915677
-0.264785393236193,-0.634626366886053,-1.323974165729432
-0.264785393236193,-0.634626366886053,-0.8568776067235228
-0.264785393236193,-0.8568776067235228,-0.020052207241915677
-0.264785393236193,-0.8568776067235228,-1.323974165729432
-0.264785393236193,-0.020052207241915677,-1.323974165729432
1.1547066136692643,-0.020052207241915677,-1.323974165729432
1.1547066136692643,-0.29225684814377073,-0.020052207241915677
1.1547066136692643,-0.29225684814377073,-1.323974165729432
1.1547066136692643,-0.29225684814377073,-0.634626366886053
1.1547066136692643,-0.29225684814377073,-0.8568776067235228
1.1547066136692643,-0.634626366886053,-0.020052207241915677
1.1547066136692643,-0.634626366886053,-1.323974165729432
1.1547066136692643,-0.634626366886053,-0.8568776067235228
1.1547066136692643,-0.8568776067235228,-0.020052207241915677
1.1547066136692643,-0.8568776067235228,-1.323974165729432
-0.29225684814377073,-0.020052207241915677,-1.323974165729432
-0.29225684814377073,-0.634626366886053,-0.020052207241915677
-0.29225684814377073,-0.634626366886053,-1.323974165729432
-0.29225684814377073,-0.634626366886053,-0.8568776067235228
-0.29225684814377073,-0.8568776067235228,-0.020052207241915677
-0.29225684814377073,-0.8568776067235228,-1.323974165729432
-0.634626366886053,-0.020052207241915677,-1.323974165729432
-0.634626366886053,-0.8568776067235228,-0.020052207241915677
-0.634626366886053,-0.8568776067235228,-1.323974165729432
-0.8568776067235228,-0.020052207241915677,-1.323974165729432
