0,1,2
-0.02509436120154976,-1.5404428287350191,1.1454259299449105
-0.02509436120154976,-1.5404428287350191,-0.6270885404149251
-0.02509436120154976,-1.5404428287350191,-0.3164707115629704
-0.02509436120154976,-1.5404428287350191,0.47404661608807436
-0.02509436120154976,-1.5404428287350191,0.9251935433101528
-0.02509436120154976,-1.5404428287350191,-0.18968389801932078
-0.02509436120154976,-1.5404428287350191,0.2495614784356941
-0.02509436120154976,-1.5404428287350191,0.5841506133344143
-0.02509436120154976,1.1454259299449105,-0.6270885404149251
-0.02509436120154976,1.1454259299449105,-0.3164707115629704
-0.02509436120154976,1.1454259299449105,0.47404661608807436
-0.02509436120154976,1.1454259299449105,0.9251935433101528
-0.02509436120154976,1.1454259299449105,-0.18968389801932078
-0.02509436120154976,1.1454259299449105,0.2495614784356941
-0.02509436120154976,1.1454259299449105,0.5841506133344143
-0.02509436120154976,-0.6270885404149251,-0.3164707115629704
-0.02509436120154976,-0.6270885404149251,0.47404661608807436
-0.02509436120154976,-0.6270885404149251,0.9251935433101528
-0.02509436120154976,-0.6270885404149251,-0.18968389801932078
-0.02509436120154976,-0.6270885404149251,0.2495614784356941
-0.02509436120154976,-0.6270885404149251,0.5841506133344143
-0.02509436120154976,-0.3164707115629704,0.2495614784356941
-0.02509436120154976,-0.3164707115629704,0.5841506133344143
-0.02509436120154976,-0.3164707115629704,0.47404661608807436
-0.02509436120154976,-0.3164707115629704,0.9251935433101528
-0.02509436120154976,-0.3164707115629704,-0.18968389801932078
-0.02509436120154976,0.47404661608807436,0.2495614784356941
-0.02509436120154976,0.47404661608807436,0.5841506133344143
-0.02509436120154976,0.47404661608807436,0.9251935433101528
-0.02509436120154976,0.47404661608807436,-0.18968389801932078
-0.02509436120154976,0.9251935433101528,0.2495614784356941
-0.02509436120154976,0.9251935433101528,0.5841506133344143
-0.02509436120154976,0.9251935433101528,-0.18968389801932078
-0.02509436120154976,-0.18968389801932078,0.2495614784356941
-0.02509436120154976,-0.18968389801932078,0.5841506133344143
-0.02509436120154976,0.2495614784356941,0.5841506133344143
-1.5404428287350191,1.1454259299449105,-0.6270885404149251
-1.5404428287350191,1.1454259299449105,-0.3164707115629704
-1.5404428287350191,1.1454259299449105,0.47404661608807436
-1.5404428287350191,1.1454259299449105,0.9251935433101528
-1.5404428287350191,1.1454259299449105,-0.18968389801932078
-1.5404428287350191,1.1454259299449105,0.2495614784356941
-1.5404428287350191,1.1454259299449105,0.5841506133344143
-1.5404428287350191,-0.6270885404149251,-0.3164707115629704
-1.5404428287350191,-0.6270885404149251,0.47404661608807436
-1.5404428287350191,-0.6270885404149251,0.9251935433101528
-1.5404428287350191,-0.6270885404149251,-0.18968389801932078
-1.5404428287350191,-0.6270885404149251,0.2495614784356941
-1.5404428287350191,-0.6270885404149251,0.5841506133344143
-1.5404428287350191,-0.3164707115629704,0.2495614784356941
-1.5404428287350191,-0.3164707115629704,0.5841506133344143
-1.5404428287350191,-0.3164707115629704,0.47404661608807436
-1.5404428287350191,-0.3164707115629704,0.9251935433101528
-1.5404428287350191,-0.3164707115629704,-0.18968389801932078
-1.5404428287350191,0.47404661608807436,0.2495614784356941
-1.5404428287350191,0.47404661608807436,0.5841506133344143
-1.5404428287350191,0.47404661608807436,0.9251935433101528
-1.5404428287350191,0.47404661608807436,-0.18968389801932078
-1.5404428287350191,0.9251935433101528,0.2495614784356941
-1.5404428287350191,0.9251935433101528,0.5841506133344143
-1.5404428287350191,0.9251935433101528,-0.18968389801932078
-1.5404428287350191,-0.18968389801932078,0.2495614784356941
-1.5404428287350191,-0.18968389801932078,0.5841506133344143
-1.5404428287350191,0.2495614784356941,0.5841506133344143
1.1454259299449105,-0.6270885404149251,-0.3164707115629704
1.1454259299449105,-0.6270885404149251,0.47404661608807436
1.1454259299449105,-0.6270885404149251,0.9251935433101528
1.1454259299449105,-0.6270885404149251,-0.18968389801932078
1.1454259299449105,-0.6270885404149251,0.2495614784356941
1.1454259299449105,-0.6270885404149251,0.5841506133344143
1.1454259299449105,-0.3164707115629704,0.2495614784356941
1.1454259299449105,-0.3164707115629704,0.5841506133344143
1.1454259299449105,-0.3164707115629704,0.47404661608807436
1.1454259299449105,-0.3164707115629704,0.9251935433101528
1.1454259299449105,-0.3164707115629704,-0.18968389801932078
1.1454259299449105,0.47404661608807436,0.2495614784356941
1.1454259299449105,0.47404661608807436,0.5841506133344143
1.1454259299449105,0.47404661608807436,0.9251935433101528
1.1454259299449105,0.47404661608807436,-0.18968389801932078
1.1454259299449105,0.9251935433101528,0.2495614784356941
1.1454259299449105,0.9251935433101528,0.5841506133344143
1.1454259299449105,0.9251935433101528,-0.18968389801932078
1.1454259299449105,-0.18968389801932078,0.2495614784356941
1.1454259299449105,-0.18968389801932078,0.5841506133344143
1.1454259299449105,0.2495614784356941,0.5841506133344143
-0.6270885404149251,-0.3164707115629704,0.2495614784356941
-0.6270885404149251,-0.3164707115629704,0.5841506133344143
-0.6270885404149251,-0.3164707115629704,0.47404661608807436
-0.6270885404149251,-0.3164707115629704,0.9251935433101528
-0.6270885404149251,-0.3164707115629704,-0.18968389801932078
-0.6270885404149251,0.47404661608807436,0.2495614784356941
-0.6270885404149251,0.47404661608807436,0.5841506133344143
-0.6270885404149251,0.47404661608807436,0.9251935433101528
-0.6270885404149251,0.47404661608807436,-0.18968389801932078
-0.6270885404149251,0.9251935433101528,0.2495614784356941
-0.6270885404149251,0.9251935433101528,0.5841506133344143
-0.6270885404149251,0.9251935433101528,-0.18968389801932078
-0.6270885404149251,-0.18968389801932078,0.2495614784356941
-0.6270885404149251,-0.18968389801932078,0.5841506133344143
-0.6270885404149251,0.2495614784356941,0.5841506133344143
-0.3164707115629704,0.2495614784356941,0.5841506133344143
-0.3164707115629704,0.47404661608807436,0.2495614784356941
-0.3164707115629704,0.47404661608807436,0.5841506133344143
-0.3164707115629704,0.47404661608807436,0.9251935433101528
-0.3164707115629704,0.47404661608807436,-0.18968389801932078
-0.3164707115629704,0.9251935433101528,0.2495614784356941
-0.3164707115629704,0.9251935433101528,0.5841506133344143
-0.3164707115629704,0.9251935433101528,-0.18968389801932078
-0.3164707115629704,-0.18968389801932078,0.2495614784356941
-0.3164707115629704,-0.18968389801932078,0.5841506133344143
0.47404661608807436,0.2495614784356941,0.5841506133344143
0.47404661608807436,0.9251935433101528,0.2495614784356941
0.47404661608807436,0.9251935433101528,0.5841506133344143
0.47404661608807436,0.9251935433101528,-0.18968389801932078
0.47404661608807436,-0.18968389801932078,0.2495614784356941
0.47404661608807436,-0.18968389801932078,0.5841506133344143
0.9251935433101528,0.2495614784356941,0.5841506133344143
0.9251935433101528,-0.18968389801932078,0.2495614784356941
0.9251935433101528,-0.18968389801932078,0.5841506133344143
-0.18968389801932078,0.2495614784356941,0.5841506133344143
