0,1,2
0.6169641718088731,-1.1398246473626035,1.1968370417633767
0.6169641718088731,-1.1398246473626035,0.18242743918682447
0.6169641718088731,-1.1398246473626035,1.1669339113554906
0.6169641718088731,-1.1398246473626035,0.3105427327081874
0.6169641718088731,-1.1398246473626035,0.12085247663489128
0.6169641718088731,-1.1398246473626035,0.7648039300231403
0.6169641718088731,-1.1398246473626035,-0.06953063052982018
0.6169641718088731,-1.1398246473626035,-0.39522138601577206
0.6169641718088731,1.1968370417633767,0.18242743918682447
0.6169641718088731,1.1968370417633767,1.1669339113554906
0.6169641718088731,1.1968370417633767,0.3105427327081874
0.6169641718088731,1.1968370417633767,0.12085247663489128
0.6169641718088731,1.1968370417633767,0.7648039300231403
0.6169641718088731,1.1968370417633767,-0.06953063052982018
0.6169641718088731,1.1968370417633767,-0.39522138601577206
0.6169641718088731,0.18242743918682447,1.1669339113554906
0.6169641718088731,0.18242743918682447,0.3105427327081874
0.6169641718088731,0.18242743918682447,0.12085247663489128
0.6169641718088731,0.18242743918682447,0.7648039300231403
0.6169641718088731,0.18242743918682447,-0.06953063052982018
0.6169641718088731,0.18242743918682447,-0.39522138601577206
0.6169641718088731,1.1669339113554906,-0.06953063052982018
0.6169641718088731,1.1669339113554906,-0.39522138601577206
0.6169641718088731,1.1669339113554906,0.3105427327081874
0.6169641718088731,1.1669339113554906,0.12085247663489128
0.6169641718088731,1.1669339113554906,0.7648039300231403
0.6169641718088731,0.3105427327081874,-0.06953063052982018
0.6169641718088731,0.3105427327081874,-0.39522138601577206
0.6169641718088731,0.3105427327081874,0.12085247663489128
0.6169641718088731,0.3105427327081874,0.7648039300231403
0.6169641718088731,0.12085247663489128,-0.06953063052982018
0.6169641718088731,0.12085247663489128,-0.39522138601577206
0.6169641718088731,0.12085247663489128,0.7648039300231403
0.6169641718088731,0.7648039300231403,-0.06953063052982018
0.6169641718088731,0.7648039300231403,-0.39522138601577206
0.6169641718088731,-0.06953063052982018,-0.39522138601577206
-1.1398246473626035,1.1968370417633767,0.18242743918682447
-1.1398246473626035,1.1968370417633767,1.1669339113554906
-1.1398246473626035,1.1968370417633767,0.3105427327081874
-1.1398246473626035,1.1968370417633767,0.12085247663489128
-1.1398246473626035,1.1968370417633767,0.7648039300231403
-1.1398246473626035,1.1968370417633767,-0.06953063052982018
-1.1398246473626035,1.1968370417633767,-0.39522138601577206
-1.1398246473626035,0.18242743918682447,1.1669339113554906
-1.1398246473626035,0.18242743918682447,0.3105427327081874
-1.1398246473626035,0.18242743918682447,0.12085247663489128
-1.1398246473626035,0.18242743918682447,0.7648039300231403
-1.1398246473626035,0.18242743918682447,-0.06953063052982018
-1.1398246473626035,0.18242743918682447,-0.39522138601577206
-1.1398246473626035,1.1669339113554906,-0.06953063052982018
-1.1398246473626035,1.1669339113554906,-0.39522138601577206
-1.1398246473626035,1.1669339113554906,0.3105427327081874
-1.1398246473626035,1.1669339113554906,0.12085247663489128
-1.1398246473626035,1.1669339113554906,0.7648039300231403
-1.1398246473626035,0.3105427327081874,-0.06953063052982018
-1.1398246473626035,0.3105427327081874,-0.39522138601577206
-1.1398246473626035,0.3105427327081874,0.12085247663489128
-1.1398246473626035,0.3105427327081874,0.7648039300231403
-1.1398246473626035,0.12085247663489128,-0.06953063052982018
-1.1398246473626035,0.12085247663489128,-0.39522138601577206
-1.1398246473626035,0.12085247663489128,0.7648039300231403
-1.1398246473626035,0.7648039300231403,-0.06953063052982018
-1.1398246473626035,0.7648039300231403,-0.39522138601577206
-1.1398246473626035,-0.06953063052982018,-0.39522138601577206
1.1968370417633767,0.18242743918682447,1.1669339113554906
1.1968370417633767,0.18242743918682447,0.3105427327081874
1.1968370417633767,0.18242743918682447,0.12085247663489128
1.1968370417633767,0.18242743918682447,0.7648039300231403
1.1968370417633767,0.18242743918682447,-0.06953063052982018
1.1968370417633767,0.18242743918682447,-0.39522138601577206
1.1968370417633767,1.1669339113554906,-0.06953063052982018
1.1968370417633767,1.1669339113554906,-0.39522138601577206
1.1968370417633767,1.1669339113554906,0.3105427327081874
1.1968370417633767,1.1669339113554906,0.12085247663489128
1.1968370417633767,1.1669339113554906,0.7648039300231403
1.1968370417633767,0.3105427327081874,-0.06953063052982018
1.1968370417633767,0.3105427327081874,-0.39522138601577206
1.1968370417633767,0.3105427327081874,0.12085247663489128
1.1968370417633767,0.3105427327081874,0.7648039300231403
1.1968370417633767,0.12085247663489128,-0.06953063052982018
1.1968370417633767,0.12085247663489128,-0.39522138601577206
1.1968370417633767,0.12085247663489128,0.7648039300231403
1.1968370417633767,0.7648039300231403,-0.06953063052982018
1.1968370417633767,0.7648039300231403,-0.39522138601577206
1.1968370417633767,-0.06953063052982018,-0.39522138601577206
0.18242743918682447,1.1669339113554906,-0.06953063052982018
0.18242743918682447,1.1669339113554906,-0.39522138601577206
0.18242743918682447,1.1669339113554906,0.3105427327081874
0.18242743918682447,1.1669339113554906,0.12085247663489128
0.18242743918682447,1.1669339113554906,0.7648039300231403
0.18242743918682447,0.3105427327081874,-0.06953063052982018
0.18242743918682447,0.3105427327081874,-0.39522138601577206
0.18242743918682447,0.3105427327081874,0.12085247663489128
0.18242743918682447,0.3105427327081874,0.7648039300231403
0.18242743918682447,0.12085247663489128,-0.06953063052982018
0.18242743918682447,0.12085247663489128,-0.39522138601577206
0.18242743918682447,0.12085247663489128,0.7648039300231403
0.18242743918682447,0.7648039300231403,-0.06953063052982018
0.18242743918682447,0.7648039300231403,-0.39522138601577206
0.18242743918682447,-0.06953063052982018,-0.39522138601577206
1.1669339113554906,-0.06953063052982018,-0.39522138601577206
1.1669339113554906,0.3105427327081874,-0.06953063052982018
1.1669339113554906,0.3105427327081874,-0.39522138601577206
1.1669339113554906,0.3105427327081874,0.12085247663489128
1.1669339113554906,0.3105427327081874,0.7648039300231403
1.1669339113554906,0.12085247663489128,-0.06953063052982018
1.1669339113554906,0.12085247663489128,-0.39522138601577206
1.1669339113554906,0.12085247663489128,0.7648039300231403
1.1669339113554906,0.7648039300231403,-0.06953063052982018
1.1669339113554906,0.7648039300231403,-0.39522138601577206
0.3105427327081874,-0.06953063052982018,-0.39522138601577206
0.3105427327081874,0.12085247663489128,-0.06953063052982018
0.3105427327081874,0.12085247663489128,-0.39522138601577206
0.3105427327081874,0.12085247663489128,0.7648039300231403
0.3105427327081874,0.7648039300231403,-0.06953063052982018
0.3105427327081874,0.7648039300231403,-0.39522138601577206
0.12085247663489128,-0.06953063052982018,-0.39522138601577206
0.12085247663489128,0.7648039300231403,-0.06953063052982018
0.12085247663489128,0.7648039300231403,-0.39522138601577206
0.7648039300231403,-0.06953063052982018,-0.39522138601577206
