0,1,2
-0.9356652723910102,-0.7102607027175627,0.8236189202882765
-0.9356652723910102,-0.7102607027175627,-0.9260447795560565
-0.9356652723910102,-0.7102607027175627,0.9412941318068275
-0.9356652723910102,-0.7102607027175627,0.22952465471014208
-0.9356652723910102,-0.7102607027175627,-0.8629788349159332
-0.9356652723910102,-0.7102607027175627,0.7124642156959952
-0.9356652723910102,-0.7102607027175627,2.0101926810803126
-0.9356652723910102,-0.7102607027175627,0.022436314073032457
-0.9356652723910102,0.8236189202882765,-0.9260447795560565
-0.9356652723910102,0.8236189202882765,0.9412941318068275
-0.9356652723910102,0.8236189202882765,0.22952465471014208
-0.9356652723910102,0.8236189202882765,-0.8629788349159332
-0.9356652723910102,0.8236189202882765,0.7124642156959952
-0.9356652723910102,0.8236189202882765,2.0101926810803126
-0.9356652723910102,0.8236189202882765,0.022436314073032457
-0.9356652723910102,-0.9260447795560565,0.9412941318068275
-0.9356652723910102,-0.9260447795560565,0.22952465471014208
-0.9356652723910102,-0.9260447795560565,-0.8629788349159332
-0.9356652723910102,-0.9260447795560565,0.7124642156959952
-0.9356652723910102,-0.9260447795560565,2.0101926810803126
-0.9356652723910102,-0.9260447795560565,0.022436314073032457
-0.9356652723910102,0.9412941318068275,2.0101926810803126
-0.9356652723910102,0.9412941318068275,0.022436314073032457
-0.9356652723910102,0.9412941318068275,0.22952465471014208
-0.9356652723910102,0.9412941318068275,-0.8629788349159332
-0.9356652723910102,0.9412941318068275,0.7124642156959952
-0.9356652723910102,0.22952465471014208,2.0101926810803126
-0.9356652723910102,0.22952465471014208,0.022436314073032457
-0.9356652723910102,0.22952465471014208,-0.8629788349159332
-0.9356652723910102,0.22952465471014208,0.7124642156959952
-0.9356652723910102,-0.8629788349159332,2.0101926810803126
-0.9356652723910102,-0.8629788349159332,0.022436314073032457
-0.9356652723910102,-0.8629788349159332,0.7124642156959952
-0.9356652723910102,0.7124642156959952,2.0101926810803126
-0.9356652723910102,0.7124642156959952,0.022436314073032457
-0.9356652723910102,2.0101926810803126,0.022436314073032457
-0.7102607027175627,0.8236189202882765,-0.9260447795560565
-0.7102607027175627,0.8236189202882765,0.9412941318068275
-0.7102607027175627,0.8236189202882765,0.22952465471014208
-0.7102607027175627,0.8236189202882765,-0.8629788349159332
-0.7102607027175627,0.8236189202882765,0.7124642156959952
-0.7102607027175627,0.8236189202882765,2.0101926810803126
-0.7102607027175627,0.8236189202882765,0.022436314073032457
-0.7102607027175627,-0.9260447795560565,0.9412941318068275
-0.7102607027175627,-0.9260447795560565,0.22952465471014208
-0.7102607027175627,-0.9260447795560565,-0.8629788349159332
-0.7102607027175627,-0.9260447795560565,0.7124642156959952
-0.7102607027175627,-0.9260447795560565,2.0101926810803126
-0.7102607027175627,-0.9260447795560565,0.022436314073032457
-0.7102607027175627,0.9412941318068275,2.0101926810803126
-0.7102607027175627,0.9412941318068275,0.022436314073032457
-0.7102607027175627,0.9412941318068275,0.22952465471014208
-0.7102607027175627,0.9412941318068275,-0.8629788349159332
-0.7102607027175627,0.9412941318068275,0.7124642156959952
-0.7102607027175627,0.22952465471014208,2.0101926810803126
-0.7102607027175627,0.22952465471014208,0.022436314073032457
-0.7102607027175627,0.22952465471014208,-0.8629788349159332
-0.7102607027175627,0.22952465471014208,0.7124642156959952
-0.7102607027175627,-0.8629788349159332,2.0101926810803126
-0.7102607027175627,-0.8629788349159332,0.022436314073032457
-0.7102607027175627,-0.8629788349159332,0.7124642156959952
-0.7102607027175627,0.7124642156959952,2.0101926810803126
-0.7102607027175627,0.7124642156959952,0.022436314073032457
-0.7102607027175627,2.0101926810803126,0.022436314073032457
0.8236189202882765,-0.9260447795560565,0.9412941318068275
0.8236189202882765,-0.9260447795560565,0.22952465471014208
0.8236189202882765,-0.9260447795560565,-0.8629788349159332
0.8236189202882765,-0.9260447795560565,0.7124642156959952
0.8236189202882765,-0.9260447795560565,2.0101926810803126
0.8236189202882765,-0.9260447795560565,0.022436314073032457
0.8236189202882765,0.9412941318068275,2.0101926810803126
0.8236189202882765,0.9412941318068275,0.022436314073032457
0.8236189202882765,0.9412941318068275,0.22952465471014208
0.8236189202882765,0.9412941318068275,-0.8629788349159332
0.8236189202882765,0.9412941318068275,0.7124642156959952
0.8236189202882765,0.22952465471014208,2.0101926810803126
0.8236189202882765,0.22952465471014208,0.022436314073032457
0.8236189202882765,0.22952465471014208,-0.8629788349159332
0.8236189202882765,0.22952465471014208,0.7124642156959952
0.8236189202882765,-0.8629788349159332,2.0101926810803126
0.8236189202882765,-0.8629788349159332,0.022436314073032457
0.8236189202882765,-0.8629788349159332,0.7124642156959952
0.8236189202882765,0.7124642156959952,2.0101926810803126
0.8236189202882765,0.7124642156959952,0.022436314073032457
0.8236189202882765,2.0101926810803126,0.022436314073032457
-0.9260447795560565,0.9412941318068275,2.0101926810803126
-0.9260447795560565,0.9412941318068275,0.022436314073032457
-0.9260447795560565,0.9412941318068275,0.22952465471014208
-0.9260447795560565,0.9412941318068275,-0.8629788349159332
-0.9260447795560565,0.9412941318068275,0.7124642156959952
-0.9260447795560565,0.22952465471014208,2.0101926810803126
-0.9260447795560565,0.22952465471014208,0.022436314073032457
-0.9260447795560565,0.22952465471014208,-0.8629788349159332
-0.9260447795560565,0.22952465471014208,0.7124642156959952
-0.9260447795560565,-0.8629788349159332,2.0101926810803126
-0.9260447795560565,-0.8629788349159332,0.022436314073032457
-0.9260447795560565,-0.8629788349159332,0.7124642156959952
-0.9260447795560565,0.7124642156959952,2.0101926810803126
-0.9260447795560565,0.7124642156959952,0.022436314073032457
-0.9260447795560565,2.0101926810803126,0.022436314073032457
0.9412941318068275,2.0101926810803126,0.022436314073032457
0.9412941318068275,0.22952465471014208,2.0101926810803126
0.9412941318068275,0.22952465471014208,0.022436314073032457
0.9412941318068275,0.22952465471014208,-0.8629788349159332
0.9412941318068275,0.22952465471014208,0.7124642156959952
0.9412941318068275,-0.8629788349159332,2.0101926810803126
0.9412941318068275,-0.8629788349159332,0.022436314073032457
0.9412941318068275,-0.8629788349159332,0.7124642156959952
0.9412941318068275,0.7124642156959952,2.0101926810803126
0.9412941318068275,0.7124642156959952,0.022436314073032457
0.22952465471014208,2.0101926810803126,0.022436314073032457
0.22952465471014208,-0.8629788349159332,2.0101926810803126
0.22952465471014208,-0.8629788349159332,0.022436314073032457
0.22952465471014208,-0.8629788349159332,0.7124642156959952
0.22952465471014208,0.7124642156959952,2.0101926810803126
0.22952465471014208,0.7124642156959952,0.022436314073032457
-0.8629788349159332,2.0101926810803126,0.022436314073032457
-0.8629788349159332,0.7124642156959952,2.0101926810803126
-0.8629788349159332,0.7124642156959952,0.022436314073032457
0.7124642156959952,2.0101926810803126,0.022436314073032457
