0,1,2
-0.47403203435609764,-0.7126149232193778,0.03009003087813296
-0.47403203435609764,-0.7126149232193778,0.3086524544077951
-0.47403203435609764,-0.7126149232193778,-0.2456918489591727
-0.47403203435609764,-0.7126149232193778,0.8194049961453405
-0.47403203435609764,-0.7126149232193778,-0.03670573475735818
-0.47403203435609764,-0.7126149232193778,-0.8295622521273013
-0.47403203435609764,-0.7126149232193778,-0.786454290368473
-0.47403203435609764,-0.7126149232193778,0.2008843763439351
-0.47403203435609764,0.03009003087813296,0.3086524544077951
-0.47403203435609764,0.03009003087813296,-0.2456918489591727
-0.47403203435609764,0.03009003087813296,0.8194049961453405
-0.47403203435609764,0.03009003087813296,-0.03670573475735818
-0.47403203435609764,0.03009003087813296,-0.8295622521273013
-0.47403203435609764,0.03009003087813296,-0.786454290368473
-0.47403203435609764,0.03009003087813296,0.2008843763439351
-0.47403203435609764,0.3086524544077951,-0.2456918489591727
-0.47403203435609764,0.3086524544077951,0.8194049961453405
-0.47403203435609764,0.3086524544077951,-0.03670573475735818
-0.47403203435609764,0.3086524544077951,-0.8295622521273013
-0.47403203435609764,0.3086524544077951,-0.786454290368473
-0.47403203435609764,0.3086524544077951,0.2008843763439351
-0.47403203435609764,-0.2456918489591727,-0.786454290368473
-0.47403203435609764,-0.2456918489591727,0.2008843763439351
-0.47403203435609764,-0.2456918489591727,0.8194049961453405
-0.47403203435609764,-0.2456918489591727,-0.03670573475735818
-0.47403203435609764,-0.2456918489591727,-0.8295622521273013
-0.47403203435609764,0.8194049961453405,-0.786454290368473
-0.47403203435609764,0.8194049961453405,0.2008843763439351
-0.47403203435609764,0.8194049961453405,-0.03670573475735818
-0.47403203435609764,0.8194049961453405,-0.8295622521273013
-0.47403203435609764,-0.03670573475735818,-0.786454290368473
-0.47403203435609764,-0.03670573475735818,0.2008843763439351
-0.47403203435609764,-0.03670573475735818,-0.8295622521273013
-0.47403203435609764,-0.8295622521273013,-0.786454290368473
-0.47403203435609764,-0.8295622521273013,0.2008843763439351
-0.47403203435609764,-0.786454290368473,0.2008843763439351
-0.7126149232193778,0.03009003087813296,0.3086524544077951
-0.7126149232193778,0.03009003087813296,-0.2456918489591727
-0.7126149232193778,0.03009003087813296,0.8194049961453405
-0.7126149232193778,0.03009003087813296,-0.03670573475735818
-0.7126149232193778,0.03009003087813296,-0.8295622521273013
-0.7126149232193778,0.03009003087813296,-0.786454290368473
-0.7126149232193778,0.03009003087813296,0.2008843763439351
-0.7126149232193778,0.3086524544077951,-0.2456918489591727
-0.7126149232193778,0.3086524544077951,0.8194049961453405
-0.7126149232193778,0.3086524544077951,-0.03670573475735818
-0.7126149232193778,0.3086524544077951,-0.8295622521273013
-0.7126149232193778,0.3086524544077951,-0.786454290368473
-0.7126149232193778,0.3086524544077951,0.2008843763439351
-0.7126149232193778,-0.2456918489591727,-0.786454290368473
-0.7126149232193778,-0.2456918489591727,0.2008843763439351
-0.7126149232193778,-0.2456918489591727,0.8194049961453405
-0.7126149232193778,-0.2456918489591727,-0.03670573475735818
-0.7126149232193778,-0.2456918489591727,-0.8295622521273013
-0.7126149232193778,0.8194049961453405,-0.786454290368473
-0.7126149232193778,0.8194049961453405,0.2008843763439351
-0.7126149232193778,0.8194049961453405,-0.03670573475735818
-0.7126149232193778,0.8194049961453405,-0.8295622521273013
-0.7126149232193778,-0.03670573475735818,-0.786454290368473
-0.7126149232193778,-0.03670573475735818,0.2008843763439351
-0.7126149232193778,-0.03670573475735818,-0.8295622521273013
-0.7126149232193778,-0.8295622521273013,-0.786454290368473
-0.7126149232193778,-0.8295622521273013,0.2008843763439351
-0.7126149232193778,-0.786454290368473,0.2008843763439351
0.03009003087813296,0.3086524544077951,-0.2456918489591727
0.03009003087813296,0.3086524544077951,0.8194049961453405
0.03009003087813296,0.3086524544077951,-0.03670573475735818
0.03009003087813296,0.3086524544077951,-0.8295622521273013
0.03009003087813296,0.3086524544077951,-0.786454290368473
0.03009003087813296,0.3086524544077951,0.2008843763439351
0.03009003087813296,-0.2456918489591727,-0.786454290368473
0.03009003087813296,-0.2456918489591727,0.2008843763439351
0.03009003087813296,-0.2456918489591727,0.8194049961453405
0.03009003087813296,-0.2456918489591727,-0.03670573475735818
0.03009003087813296,-0.2456918489591727,-0.8295622521273013
0.03009003087813296,0.8194049961453405,-0.786454290368473
0.03009003087813296,0.8194049961453405,0.2008843763439351
0.03009003087813296,0.8194049961453405,-0.03670573475735818
0.03009003087813296,0.8194049961453405,-0.8295622521273013
0.03009003087813296,-0.03670573475735818,-0.786454290368473
0.03009003087813296,-0.03670573475735818,0.2008843763439351
0.03009003087813296,-0.03670573475735818,-0.8295622521273013
0.03009003087813296,-0.8295622521273013,-0.786454290368473
0.03009003087813296,-0.8295622521273013,0.2008843763439351
0.03009003087813296,-0.786454290368473,0.2008843763439351
0.3086524544077951,-0.2456918489591727,-0.786454290368473
0.3086524544077951,-0.2456918489591727,0.2008843763439351
0.3086524544077951,-0.2456918489591727,0.8194049961453405
0.3086524544077951,-0.2456918489591727,-0.03670573475735818
0.3086524544077951,-0.2456918489591727,-0.8295622521273013
0.3086524544077951,0.8194049961453405,-0.786454290368473
0.3086524544077951,0.8194049961453405,0.2008843763439351
0.3086524544077951,0.8194049961453405,-0.03670573475735818
0.3086524544077951,0.8194049961453405,-0.8295622521273013
0.3086524544077951,-0.03670573475735818,-0.786454290368473
0.3086524544077951,-0.03670573475735818,0.2008843763439351
0.3086524544077951,-0.03670573475735818,-0.8295622521273013
0.3086524544077951,-0.8295622521273013,-0.786454290368473
0.3086524544077951,-0.8295622521273013,0.2008843763439351
0.3086524544077951,-0.786454290368473,0.2008843763439351
-0.2456918489591727,-0.786454290368473,0.2008843763439351
-0.2456918489591727,0.8194049961453405,-0.786454290368473
-0.2456918489591727,0.8194049961453405,0.2008843763439351
-0.2456918489591727,0.8194049961453405,-0.03670573475735818
-0.2456918489591727,0.8194049961453405,-0.8295622521273013
-0.2456918489591727,-0.03670573475735818,-0.786454290368473
-0.2456918489591727,-0.03670573475735818,0.2008843763439351
-0.2456918489591727,-0.03670573475735818,-0.8295622521273013
-0.2456918489591727,-0.8295622521273013,-0.786454290368473
-0.2456918489591727,-0.8295622521273013,0.2008843763439351
0.8194049961453405,-0.786454290368473,0.2008843763439351
0.8194049961453405,-0.03670573475735818,-0.786454290368473
0.8194049961453405,-0.03670573475735818,0.2008843763439351
0.8194049961453405,-0.03670573475735818,-0.8295622521273013
0.8194049961453405,-0.8295622521273013,-0.786454290368473
0.8194049961453405,-0.8295622521273013,0.2008843763439351
-0.03670573475735818,-0.786454290368473,0.2008843763439351
-0.03670573475735818,-0.8295622521273013,-0.786454290368473
-0.03670573475735818,-0.8295622521273013,0.2008843763439351
-0.8295622521273013,-0.786454290368473,0.2008843763439351
