0,1,2
0.6786015279014443,0.27036564333838614,-1.1018378805155633
0.6786015279014443,0.27036564333838614,-0.052649608765619645
0.6786015279014443,0.27036564333838614,0.4012111014436289
0.6786015279014443,0.27036564333838614,0.03001400740307689
0.6786015279014443,0.27036564333838614,0.4946515554591366
0.6786015279014443,0.27036564333838614,0.477010303129483
0.6786015279014443,0.27036564333838614,-0.6354322772667249
0.6786015279014443,0.27036564333838614,-0.8458550249924444
0.6786015279014443,-1.1018378805155633,-0.052649608765619645
0.6786015279014443,-1.1018378805155633,0.4012111014436289
0.6786015279014443,-1.1018378805155633,0.03001400740307689
0.6786015279014443,-1.1018378805155633,0.4946515554591366
0.6786015279014443,-1.1018378805155633,0.477010303129483
0.6786015279014443,-1.1018378805155633,-0.6354322772667249
0.6786015279014443,-1.1018378805155633,-0.8458550249924444
0.6786015279014443,-0.052649608765619645,0.4012111014436289
0.6786015279014443,-0.052649608765619645,0.03001400740307689
0.6786015279014443,-0.052649608765619645,0.4946515554591366
0.6786015279014443,-0.052649608765619645,0.477010303129483
0.6786015279014443,-0.052649608765619645,-0.6354322772667249
0.6786015279014443,-0.052649608765619645,-0.8458550249924444
0.6786015279014443,0.4012111014436289,-0.6354322772667249
0.6786015279014443,0.4012111014436289,-0.8458550249924444
0.6786015279014443,0.4012111014436289,0.03001400740307689
0.6786015279014443,0.4012111014436289,0.4946515554591366
0.6786015279014443,0.4012111014436289,0.477010303129483
0.6786015279014443,0.03001400740307689,-0.6354322772667249
0.6786015279014443,0.03001400740307689,-0.8458550249924444
0.6786015279014443,0.03001400740307689,0.4946515554591366
0.6786015279014443,0.03001400740307689,0.477010303129483
0.6786015279014443,0.4946515554591366,-0.6354322772667249
0.6786015279014443,0.4946515554591366,-0.8458550249924444
0.6786015279014443,0.4946515554591366,0.477010303129483
0.6786015279014443,0.477010303129483,-0.6354322772667249
0.6786015279014443,0.477010303129483,-0.8458550249924444
0.6786015279014443,-0.6354322772667249,-0.8458550249924444
0.27036564333838614,-1.1018378805155633,-0.052649608765619645
0.27036564333838614,-1.1018378805155633,0.4012111014436289
0.27036564333838614,-1.1018378805155633,0.03001400740307689
0.27036564333838614,-1.1018378805155633,0.4946515554591366
0.27036564333838614,-1.1018378805155633,0.477010303129483
0.27036564333838614,-1.1018378805155633,-0.6354322772667249
0.27036564333838614,-1.1018378805155633,-0.8458550249924444
0.27036564333838614,-0.052649608765619645,0.4012111014436289
0.27036564333838614,-0.052649608765619645,0.03001400740307689
0.27036564333838614,-0.052649608765619645,0.4946515554591366
0.27036564333838614,-0.052649608765619645,0.477010303129483
0.27036564333838614,-0.052649608765619645,-0.6354322772667249
0.27036564333838614,-0.052649608765619645,-0.8458550249924444
0.27036564333838614,0.4012111014436289,-0.6354322772667249
0.27036564333838614,0.4012111014436289,-0.8458550249924444
0.27036564333838614,0.4012111014436289,0.03001400740307689
0.27036564333838614,0.4012111014436289,0.4946515554591366
0.27036564333838614,0.4012111014436289,0.477010303129483
0.27036564333838614,0.03001400740307689,-0.6354322772667249
0.27036564333838614,0.03001400740307689,-0.8458550249924444
0.27036564333838614,0.03001400740307689,0.4946515554591366
0.27036564333838614,0.03001400740307689,0.477010303129483
0.27036564333838614,0.4946515554591366,-0.6354322772667249
0.27036564333838614,0.4946515554591366,-0.8458550249924444
0.27036564333838614,0.4946515554591366,0.477010303129483
0.27036564333838614,0.477010303129483,-0.6354322772667249
0.27036564333838614,0.477010303129483,-0.8458550249924444
0.27036564333838614,-0.6354322772667249,-0.8458550249924444
-1.1018378805155633,-0.052649608765619645,0.4012111014436289
-1.1018378805155633,-0.052649608765619645,0.03001400740307689
-1.1018378805155633,-0.052649608765619645,0.4946515554591366
-1.1018378805155633,-0.052649608765619645,0.477010303129483
-1.1018378805155633,-0.052649608765619645,-0.6354322772667249
-1.1018378805155633,-0.052649608765619645,-0.8458550249924444
-1.1018378805155633,0.4012111014436289,-0.6354322772667249
-1.1018378805155633,0.4012111014436289,-0.8458550249924444
-1.1018378805155633,0.4012111014436289,0.03001400740307689
-1.1018378805155633,0.4012111014436289,0.4946515554591366
-1.1018378805155633,0.4012111014436289,0.477010303129483
-1.1018378805155633,0.03001400740307689,-0.6354322772667249
-1.1018378805155633,0.03001400740307689,-0.8458550249924444
-1.1018378805155633,0.03001400740307689,0.4946515554591366
-1.1018378805155633,0.03001400740307689,0.477010303129483
-1.1018378805155633,0.4946515554591366,-0.6354322772667249
-1.1018378805155633,0.4946515554591366,-0.8458550249924444
-1.1018378805155633,0.4946515554591366,0.477010303129483
-1.1018378805155633,0.477010303129483,-0.6354322772667249
-1.1018378805155633,0.477010303129483,-0.8458550249924444
-1.1018378805155633,-0.6354322772667249,-0.8458550249924444
-0.052649608765619645,0.4012111014436289,-0.6354322772667249
-0.052649608765619645,0.4012111014436289,-0.8458550249924444
-0.052649608765619645,0.4012111014436289,0.03001400740307689
-0.052649608765619645,0.4012111014436289,0.4946515554591366
-0.052649608765619645,0.4012111014436289,0.477010303129483
-0.052649608765619645,0.03001400740307689,-0.6354322772667249
-0.052649608765619645,0.03001400740307689,-0.8458550249924444
-0.052649608765619645,0.03001400740307689,0.4946515554591366
-0.052649608765619645,0.03001400740307689,0.477010303129483
-0.052649608765619645,0.4946515554591366,-0.6354322772667249
-0.052649608765619645,0.4946515554591366,-0.8458550249924444
-0.052649608765619645,0.4946515554591366,0.477010303129483
-0.052649608765619645,0.477010303129483,-0.6354322772667249
-0.052649608765619645,0.477010303129483,-0.8458550249924444
-0.052649608765619645,-0.6354322772667249,-0.8458550249924444
0.4012111014436289,-0.6354322772667249,-0.8458550249924444
0.4012111014436289,0.03001400740307689,-0.6354322772667249
0.4012111014436289,0.03001400740307689,-0.8458550249924444
0.4012111014436289,0.03001400740307689,0.4946515554591366
0.4012111014436289,0.03001400740307689,0.477010303129483
0.4012111014436289,0.4946515554591366,-0.6354322772667249
0.4012111014436289,0.4946515554591366,-0.8458550249924444
0.4012111014436289,0.4946515554591366,0.477010303129483
0.4012111014436289,0.477010303129483,-0.6354322772667249
0.4012111014436289,0.477010303129483,-0.8458550249924444
0.03001400740307689,-0.6354322772667249,-0.8458550249924444
0.03001400740307689,0.4946515554591366,-0.6354322772667249
0.03001400740307689,0.4946515554591366,-0.8458550249924444
0.03001400740307689,0.4946515554591366,0.477010303129483
0.03001400740307689,0.477010303129483,-0.6354322772667249
0.03001400740307689,0.477010303129483,-0.8458550249924444
0.4946515554591366,-0.6354322772667249,-0.8458550249924444
0.4946515554591366,0.477010303129483,-0.6354322772667249
0.4946515554591366,0.477010303129483,-0.8458550249924444
0.477010303129483,-0.6354322772667249,-0.8458550249924444
