0,1,2
0.8082960305230793,-1.2722739480810124,-0.39458302599004746
0.8082960305230793,-1.2722739480810124,0.19316915268076973
0.8082960305230793,-1.2722739480810124,0.1297843600103218
0.8082960305230793,-1.2722739480810124,0.6739769554541162
0.8082960305230793,-1.2722739480810124,0.8617396277610433
0.8082960305230793,-1.2722739480810124,-2.160691964064709
0.8082960305230793,-1.2722739480810124,-0.8302537364561968
0.8082960305230793,-1.2722739480810124,1.1319505562762777
0.8082960305230793,-0.39458302599004746,0.19316915268076973
0.8082960305230793,-0.39458302599004746,0.1297843600103218
0.8082960305230793,-0.39458302599004746,0.6739769554541162
0.8082960305230793,-0.39458302599004746,0.8617396277610433
0.8082960305230793,-0.39458302599004746,-2.160691964064709
0.8082960305230793,-0.39458302599004746,-0.8302537364561968
0.8082960305230793,-0.39458302599004746,1.1319505562762777
0.8082960305230793,0.19316915268076973,0.1297843600103218
0.8082960305230793,0.19316915268076973,0.6739769554541162
0.8082960305230793,0.19316915268076973,0.8617396277610433
0.8082960305230793,0.19316915268076973,-2.160691964064709
0.8082960305230793,0.19316915268076973,-0.8302537364561968
0.8082960305230793,0.19316915268076973,1.1319505562762777
0.8082960305230793,0.1297843600103218,-0.8302537364561968
0.8082960305230793,0.1297843600103218,1.1319505562762777
0.8082960305230793,0.1297843600103218,0.6739769554541162
0.8082960305230793,0.1297843600103218,0.8617396277610433
0.8082960305230793,0.1297843600103218,-2.160691964064709
0.8082960305230793,0.6739769554541162,-0.8302537364561968
0.8082960305230793,0.6739769554541162,1.1319505562762777
0.8082960305230793,0.6739769554541162,0.8617396277610433
0.8082960305230793,0.6739769554541162,-2.160691964064709
0.8082960305230793,0.8617396277610433,-0.8302537364561968
0.8082960305230793,0.8617396277610433,1.1319505562762777
0.8082960305230793,0.8617396277610433,-2.160691964064709
0.8082960305230793,-2.160691964064709,-0.8302537364561968
0.8082960305230793,-2.160691964064709,1.1319505562762777
0.8082960305230793,-0.8302537364561968,1.1319505562762777
-1.2722739480810124,-0.39458302599004746,0.19316915268076973
-1.2722739480810124,-0.39458302599004746,0.1297843600103218
-1.2722739480810124,-0.39458302599004746,0.6739769554541162
-1.2722739480810124,-0.39458302599004746,0.8617396277610433
-1.2722739480810124,-0.39458302599004746,-2.160691964064709
-1.2722739480810124,-0.39458302599004746,-0.8302537364561968
-1.2722739480810124,-0.39458302599004746,1.1319505562762777
-1.2722739480810124,0.19316915268076973,0.1297843600103218
-1.2722739480810124,0.19316915268076973,0.6739769554541162
-1.2722739480810124,0.19316915268076973,0.8617396277610433
-1.2722739480810124,0.19316915268076973,-2.160691964064709
-1.2722739480810124,0.19316915268076973,-0.8302537364561968
-1.2722739480810124,0.19316915268076973,1.1319505562762777
-1.2722739480810124,0.1297843600103218,-0.8302537364561968
-1.2722739480810124,0.1297843600103218,1.1319505562762777
-1.2722739480810124,0.1297843600103218,0.6739769554541162
-1.2722739480810124,0.1297843600103218,0.8617396277610433
-1.2722739480810124,0.1297843600103218,-2.160691964064709
-1.2722739480810124,0.6739769554541162,-0.8302537364561968
-1.2722739480810124,0.6739769554541162,1.1319505562762777
-1.2722739480810124,0.6739769554541162,0.8617396277610433
-1.2722739480810124,0.6739769554541162,-2.160691964064709
-1.2722739480810124,0.8617396277610433,-0.8302537364561968
-1.2722739480810124,0.8617396277610433,1.1319505562762777
-1.2722739480810124,0.8617396277610433,-2.160691964064709
-1.2722739480810124,-2.160691964064709,-0.8302537364561968
-1.2722739480810124,-2.160691964064709,1.1319505562762777
-1.2722739480810124,-0.8302537364561968,1.1319505562762777
-0.39458302599004746,0.19316915268076973,0.1297843600103218
-0.39458302599004746,0.19316915268076973,0.6739769554541162
-0.39458302599004746,0.19316915268076973,0.8617396277610433
-0.39458302599004746,0.19316915268076973,-2.160691964064709
-0.39458302599004746,0.19316915268076973,-0.8302537364561968
-0.39458302599004746,0.19316915268076973,1.1319505562762777
-0.39458302599004746,0.1297843600103218,-0.8302537364561968
-0.39458302599004746,0.1297843600103218,1.1319505562762777
-0.39458302599004746,0.1297843600103218,0.6739769554541162
-0.39458302599004746,0.1297843600103218,0.8617396277610433
-0.39458302599004746,0.1297843600103218,-2.160691964064709
-0.39458302599004746,0.6739769554541162,-0.8302537364561968
-0.39458302599004746,0.6739769554541162,1.1319505562762777
-0.39458302599004746,0.6739769554541162,0.8617396277610433
-0.39458302599004746,0.6739769554541162,-2.160691964064709
-0.39458302599004746,0.8617396277610433,-0.8302537364561968
-0.39458302599004746,0.8617396277610433,1.1319505562762777
-0.39458302599004746,0.8617396277610433,-2.160691964064709
-0.39458302599004746,-2.160691964064709,-0.8302537364561968
-0.39458302599004746,-2.160691964064709,1.1319505562762777
-0.39458302599004746,-0.8302537364561968,1.1319505562762777
0.19316915268076973,0.1297843600103218,-0.8302537364561968
0.19316915268076973,0.1297843600103218,1.1319505562762777
0.19316915268076973,0.1297843600103218,0.6739769554541162
0.19316915268076973,0.1297843600103218,0.8617396277610433
0.19316915268076973,0.1297843600103218,-2.160691964064709
0.19316915268076973,0.6739769554541162,-0.8302537364561968
0.19316915268076973,0.6739769554541162,1.1319505562762777
0.19316915268076973,0.6739769554541162,0.8617396277610433
0.19316915268076973,0.6739769554541162,-2.160691964064709
0.19316915268076973,0.8617396277610433,-0.8302537364561968
0.19316915268076973,0.8617396277610433,1.1319505562762777
0.19316915268076973,0.8617396277610433,-2.160691964064709
0.19316915268076973,-2.160691964064709,-0.8302537364561968
0.19316915268076973,-2.160691964064709,1.1319505562762777
0.19316915268076973,-0.8302537364561968,1.1319505562762777
0.1297843600103218,-0.8302537364561968,1.1319505562762777
0.1297843600103218,0.6739769554541162,-0.8302537364561968
0.1297843600103218,0.6739769554541162,1.1319505562762777
0.1297843600103218,0.6739769554541162,0.8617396277610433
0.1297843600103218,0.6739769554541162,-2.160691964064709
0.1297843600103218,0.8617396277610433,-0.8302537364561968
0.1297843600103218,0.8617396277610433,1.1319505562762777
0.1297843600103218,0.8617396277610433,-2.160691964064709
0.1297843600103218,-2.160691964064709,-0.8302537364561968
0.1297843600103218,-2.160691964064709,1.1319505562762777
0.6739769554541162,-0.8302537364561968,1.1319505562762777
0.6739769554541162,0.8617396277610433,-0.8302537364561968
0.6739769554541162,0.8617396277610433,1.1319505562762777
0.6739769554541162,0.8617396277610433,-2.160691964064709
0.6739769554541162,-2.160691964064709,-0.8302537364561968
0.6739769554541162,-2.160691964064709,1.1319505562762777
0.8617396277610433,-0.8302537364561968,1.1319505562762777
0.8617396277610433,-2.160691964064709,-0.8302537364561968
0.8617396277610433,-2.160691964064709,1.1319505562762777
-2.160691964064709,-0.8302537364561968,1.1319505562762777
