0,1,2
0.7384634603178829,0.18200841090237196,1.2092056941931826
0.7384634603178829,0.18200841090237196,-0.9096888382229418
0.7384634603178829,0.18200841090237196,-1.136195008333228
0.7384634603178829,0.18200841090237196,-0.5178112367299815
0.7384634603178829,0.18200841090237196,0.4249036213960907
0.7384634603178829,0.18200841090237196,2.018148736930531
0.7384634603178829,0.18200841090237196,-0.9306346536484115
0.7384634603178829,0.18200841090237196,-0.47694806241398463
0.7384634603178829,1.2092056941931826,-0.9096888382229418
0.7384634603178829,1.2092056941931826,-1.136195008333228
0.7384634603178829,1.2092056941931826,-0.5178112367299815
0.7384634603178829,1.2092056941931826,0.4249036213960907
0.7384634603178829,1.2092056941931826,2.018148736930531
0.7384634603178829,1.2092056941931826,-0.9306346536484115
0.7384634603178829,1.2092056941931826,-0.47694806241398463
0.7384634603178829,-0.9096888382229418,-1.136195008333228
0.7384634603178829,-0.9096888382229418,-0.5178112367299815
0.7384634603178829,-0.9096888382229418,0.4249036213960907
0.7384634603178829,-0.9096888382229418,2.018148736930531
0.7384634603178829,-0.9096888382229418,-0.9306346536484115
0.7384634603178829,-0.9096888382229418,-0.47694806241398463
0.7384634603178829,-1.136195008333228,-0.9306346536484115
0.7384634603178829,-1.136195008333228,-0.47694806241398463
0.7384634603178829,-1.136195008333228,-0.5178112367299815
0.7384634603178829,-1.136195008333228,0.4249036213960907
0.7384634603178829,-1.136195008333228,2.018148736930531
0.7384634603178829,-0.5178112367299815,-0.9306346536484115
0.7384634603178829,-0.5178112367299815,-0.47694806241398463
0.7384634603178829,-0.5178112367299815,0.4249036213960907
0.7384634603178829,-0.5178112367299815,2.018148736930531
0.7384634603178829,0.4249036213960907,-0.9306346536484115
0.7384634603178829,0.4249036213960907,-0.47694806241398463
0.7384634603178829,0.4249036213960907,2.018148736930531
0.7384634603178829,2.018148736930531,-0.9306346536484115
0.7384634603178829,2.018148736930531,-0.47694806241398463
0.7384634603178829,-0.9306346536484115,-0.47694806241398463
0.18200841090237196,1.2092056941931826,-0.9096888382229418
0.18200841090237196,1.2092056941931826,-1.136195008333228
0.18200841090237196,1.2092056941931826,-0.5178112367299815
0.18200841090237196,1.2092056941931826,0.4249036213960907
0.18200841090237196,1.2092056941931826,2.018148736930531
0.18200841090237196,1.2092056941931826,-0.9306346536484115
0.18200841090237196,1.2092056941931826,-0.47694806241398463
0.18200841090237196,-0.9096888382229418,-1.136195008333228
0.18200841090237196,-0.9096888382229418,-0.5178112367299815
0.18200841090237196,-0.9096888382229418,0.4249036213960907
0.18200841090237196,-0.9096888382229418,2.018148736930531
0.18200841090237196,-0.9096888382229418,-0.9306346536484115
0.18200841090237196,-0.9096888382229418,-0.47694806241398463
0.18200841090237196,-1.136195008333228,-0.9306346536484115
0.18200841090237196,-1.136195008333228,-0.47694806241398463
0.18200841090237196,-1.136195008333228,-0.5178112367299815
0.18200841090237196,-1.136195008333228,0.4249036213960907
0.18200841090237196,-1.136195008333228,2.018148736930531
0.18200841090237196,-0.5178112367299815,-0.9306346536484115
0.18200841090237196,-0.5178112367299815,-0.47694806241398463
0.18200841090237196,-0.5178112367299815,0.4249036213960907
0.18200841090237196,-0.5178112367299815,2.018148736930531
0.18200841090237196,0.4249036213960907,-0.9306346536484115
0.18200841090237196,0.4249036213960907,-0.47694806241398463
0.18200841090237196,0.4249036213960907,2.018148736930531
0.18200841090237196,2.018148736930531,-0.9306346536484115
0.18200841090237196,2.018148736930531,-0.47694806241398463
0.18200841090237196,-0.9306346536484115,-0.47694806241398463
1.2092056941931826,-0.9096888382229418,-1.136195008333228
1.2092056941931826,-0.9096888382229418,-0.5178112367299815
1.2092056941931826,-0.9096888382229418,0.4249036213960907
1.2092056941931826,-0.9096888382229418,2.018148736930531
1.2092056941931826,-0.9096888382229418,-0.9306346536484115
1.2092056941931826,-0.9096888382229418,-0.47694806241398463
1.2092056941931826,-1.136195008333228,-0.9306346536484115
1.2092056941931826,-1.136195008333228,-0.47694806241398463
1.2092056941931826,-1.136195008333228,-0.5178112367299815
1.2092056941931826,-1.136195008333228,0.4249036213960907
1.2092056941931826,-1.136195008333228,2.018148736930531
1.2092056941931826,-0.5178112367299815,-0.9306346536484115
1.2092056941931826,-0.5178112367299815,-0.47694806241398463
1.2092056941931826,-0.5178112367299815,0.4249036213960907
1.2092056941931826,-0.5178112367299815,2.018148736930531
1.2092056941931826,0.4249036213960907,-0.9306346536484115
1.2092056941931826,0.4249036213960907,-0.47694806241398463
1.2092056941931826,0.4249036213960907,2.018148736930531
1.2092056941931826,2.018148736930531,-0.9306346536484115
1.2092056941931826,2.018148736930531,-0.47694806241398463
1.2092056941931826,-0.9306346536484115,-0.47694806241398463
-0.9096888382229418,-1.136195008333228,-0.9306346536484115
-0.9096888382229418,-1.136195008333228,-0.47694806241398463
-0.9096888382229418,-1.136195008333228,-0.5178112367299815
-0.9096888382229418,-1.136195008333228,0.4249036213960907
-0.9096888382229418,-1.136195008333228,2.018148736930531
-0.9096888382229418,-0.5178112367299815,-0.9306346536484115
-0.9096888382229418,-0.5178112367299815,-0.47694806241398463
-0.9096888382229418,-0.5178112367299815,0.4249036213960907
-0.9096888382229418,-0.5178112367299815,2.018148736930531
-0.9096888382229418,0.4249036213960907,-0.9306346536484115
-0.9096888382229418,0.4249036213960907,-0.47694806241398463
-0.9096888382229418,0.4249036213960907,2.018148736930531
-0.9096888382229418,2.018148736930531,-0.9306346536484115
-0.9096888382229418,2.018148736930531,-0.47694806241398463
-0.9096888382229418,-0.9306346536484115,-0.47694806241398463
-1.136195008333228,-0.9306346536484115,-0.47694806241398463
-1.136195008333228,-0.5178112367299815,-0.9306346536484115
-1.136195008333228,-0.5178112367299815,-0.47694806241398463
-1.136195008333228,-0.5178112367299815,0.4249036213960907
-1.136195008333228,-0.5178112367299815,2.018148736930531
-1.136195008333228,0.4249036213960907,-0.9306346536484115
-1.136195008333228,0.4249036213960907,-0.47694806241398463
-1.136195008333228,0.4249036213960907,2.018148736930531
-1.136195008333228,2.018148736930531,-0.9306346536484115
-1.136195008333228,2.018148736930531,-0.47694806241398463
-0.5178112367299815,-0.9306346536484115,-0.47694806241398463
-0.5178112367299815,0.4249036213960907,-0.9306346536484115
-0.5178112367299815,0.4249036213960907,-0.47694806241398463
-0.5178112367299815,0.4249036213960907,2.018148736930531
-0.5178112367299815,2.018148736930531,-0.9306346536484115
-0.5178112367299815,2.018148736930531,-0.47694806241398463
0.4249036213960907,-0.9306346536484115,-0.47694806241398463
0.4249036213960907,2.018148736930531,-0.9306346536484115
0.4249036213960907,2.018148736930531,-0.47694806241398463
2.018148736930531,-0.9306346536484115,-0.47694806241398463
