0,1,2
-0.34630904460630013,0.2994849779169554,-0.7887371388836658
-0.34630904460630013,0.2994849779169554,-0.6508948351602516
-0.34630904460630013,0.2994849779169554,-0.48379192968504886
-0.34630904460630013,0.2994849779169554,-0.821238158587992
-0.34630904460630013,0.2994849779169554,2.279816814895697
-0.34630904460630013,0.2994849779169554,-0.5297333230062501
-0.34630904460630013,0.2994849779169554,-1.2539956257142604
-0.34630904460630013,0.2994849779169554,-1.8004525931425646
-0.34630904460630013,-0.7887371388836658,-0.6508948351602516
-0.34630904460630013,-0.7887371388836658,-0.48379192968504886
-0.34630904460630013,-0.7887371388836658,-0.821238158587992
-0.34630904460630013,-0.7887371388836658,2.279816814895697
-0.34630904460630013,-0.7887371388836658,-0.5297333230062501
-0.34630904460630013,-0.7887371388836658,-1.2539956257142604
-0.34630904460630013,-0.7887371388836658,-1.8004525931425646
-0.34630904460630013,-0.6508948351602516,-0.48379192968504886
-0.34630904460630013,-0.6508948351602516,-0.821238158587992
-0.34630904460630013,-0.6508948351602516,2.279816814895697
-0.34630904460630013,-0.6508948351602516,-0.5297333230062501
-0.34630904460630013,-0.6508948351602516,-1.2539956257142604
-0.34630904460630013,-0.6508948351602516,-1.8004525931425646
-0.34630904460630013,-0.48379192968504886,-1.2539956257142604
-0.34630904460630013,-0.48379192968504886,-1.8004525931425646
-0.34630904460630013,-0.48379192968504886,-0.821238158587992
-0.34630904460630013,-0.48379192968504886,2.279816814895697
-0.34630904460630013,-0.48379192968504886,-0.5297333230062501
-0.34630904460630013,-0.821238158587992,-1.2539956257142604
-0.34630904460630013,-0.821238158587992,-1.8004525931425646
-0.34630904460630013,-0.821238158587992,2.279816814895697
-0.34630904460630013,-0.821238158587992,-0.5297333230062501
-0.34630904460630013,2.279816814895697,-1.2539956257142604
-0.34630904460630013,2.279816814895697,-1.8004525931425646
-0.34630904460630013,2.279816814895697,-0.5297333230062501
-0.34630904460630013,-0.5297333230062501,-1.2539956257142604
-0.34630904460630013,-0.5297333230062501,-1.8004525931425646
-0.34630904460630013,-1.2539956257142604,-1.8004525931425646
0.2994849779169554,-0.7887371388836658,-0.6508948351602516
0.2994849779169554,-0.7887371388836658,-0.48379192968504886
0.2994849779169554,-0.7887371388836658,-0.821238158587992
0.2994849779169554,-0.7887371388836658,2.279816814895697
0.2994849779169554,-0.7887371388836658,-0.5297333230062501
0.2994849779169554,-0.7887371388836658,-1.2539956257142604
0.2994849779169554,-0.7887371388836658,-1.8004525931425646
0.2994849779169554,-0.6508948351602516,-0.48379192968504886
0.2994849779169554,-0.6508948351602516,-0.821238158587992
0.2994849779169554,-0.6508948351602516,2.279816814895697
0.2994849779169554,-0.6508948351602516,-0.5297333230062501
0.2994849779169554,-0.6508948351602516,-1.2539956257142604
0.2994849779169554,-0.6508948351602516,-1.8004525931425646
0.2994849779169554,-0.48379192968504886,-1.2539956257142604
0.2994849779169554,-0.48379192968504886,-1.8004525931425646
0.2994849779169554,-0.48379192968504886,-0.821238158587992
0.2994849779169554,-0.48379192968504886,2.279816814895697
0.2994849779169554,-0.48379192968504886,-0.5297333230062501
0.2994849779169554,-0.821238158587992,-1.2539956257142604
0.2994849779169554,-0.821238158587992,-1.8004525931425646
0.2994849779169554,-0.821238158587992,2.279816814895697
0.2994849779169554,-0.821238158587992,-0.5297333230062501
0.2994849779169554,2.279816814895697,-1.2539956257142604
0.2994849779169554,2.279816814895697,-1.8004525931425646
0.2994849779169554,2.279816814895697,-0.5297333230062501
0.2994849779169554,-0.5297333230062501,-1.2539956257142604
0.2994849779169554,-0.5297333230062501,-1.8004525931425646
0.2994849779169554,-1.2539956257142604,-1.8004525931425646
-0.7887371388836658,-0.6508948351602516,-0.48379192968504886
-0.7887371388836658,-0.6508948351602516,-0.821238158587992
-0.7887371388836658,-0.6508948351602516,2.279816814895697
-0.7887371388836658,-0.6508948351602516,-0.5297333230062501
-0.7887371388836658,-0.6508948351602516,-1.2539956257142604
-0.7887371388836658,-0.6508948351602516,-1.8004525931425646
-0.7887371388836658,-0.48379192968504886,-1.2539956257142604
-0.7887371388836658,-0.48379192968504886,-1.8004525931425646
-0.7887371388836658,-0.48379192968504886,-0.821238158587992
-0.7887371388836658,-0.48379192968504886,2.279816814895697
-0.7887371388836658,-0.48379192968504886,-0.5297333230062501
-0.7887371388836658,-0.821238158587992,-1.2539956257142604
-0.7887371388836658,-0.821238158587992,-1.8004525931425646
-0.7887371388836658,-0.821238158587992,2.279816814895697
-0.7887371388836658,-0.821238158587992,-0.5297333230062501
-0.7887371388836658,2.279816814895697,-1.2539956257142604
-0.7887371388836658,2.279816814895697,-1.8004525931425646
-0.7887371388836658,2.279816814895697,-0.5297333230062501
-0.7887371388836658,-0.5297333230062501,-1.2539956257142604
-0.7887371388836658,-0.5297333230062501,-1.8004525931425646
-0.7887371388836658,-1.2539956257142604,-1.8004525931425646
-0.6508948351602516,-0.48379192968504886,-1.2539956257142604
-0.6508948351602516,-0.48379192968504886,-1.8004525931425646
-0.6508948351602516,-0.48379192968504886,-0.821238158587992
-0.6508948351602516,-0.48379192968504886,2.279816814895697
-0.6508948351602516,-0.48379192968504886,-0.5297333230062501
-0.6508948351602516,-0.821238158587992,-1.2539956257142604
-0.6508948351602516,-0.821238158587992,-1.8004525931425646
-0.6508948351602516,-0.821238158587992,2.279816814895697
-0.6508948351602516,-0.821238158587992,-0.5297333230062501
-0.6508948351602516,2.279816814895697,-1.2539956257142604
-0.6508948351602516,2.279816814895697,-1.8004525931425646
-0.6508948351602516,2.279816814895697,-0.5297333230062501
-0.6508948351602516,-0.5297333230062501,-1.2539956257142604
-0.6508948351602516,-0.5297333230062501,-1.8004525931425646
-0.6508948351602516,-1.2539956257142604,-1.8004525931425646
-0.48379192968504886,-1.2539956257142604,-1.8004525931425646
-0.48379192968504886,-0.821238158587992,-1.2539956257142604
-0.48379192968504886,-0.821238158587992,-1.8004525931425646
-0.48379192968504886,-0.821238158587992,2.279816814895697
-0.48379192968504886,-0.821238158587992,-0.5297333230062501
-0.48379192968504886,2.279816814895697,-1.2539956257142604
-0.48379192968504886,2.279816814895697,-1.8004525931425646
-0.48379192968504886,2.279816814895697,-0.5297333230062501
-0.48379192968504886,-0.5297333230062501,-1.2539956257142604
-0.48379192968504886,-0.5297333230062501,-1.8004525931425646
-0.821238158587992,-1.2539956257142604,-1.8004525931425646
-0.821238158587992,2.279816814895697,-1.2539956257142604
-0.821238158587992,2.279816814895697,-1.8004525931425646
-0.821238158587992,2.279816814895697,-0.5297333230062501
-0.821238158587992,-0.5297333230062501,-1.2539956257142604
-0.821238158587992,-0.5297333230062501,-1.8004525931425646
2.279816814895697,-1.2539956257142604,-1.8004525931425646
2.279816814895697,-0.5297333230062501,-1.2539956257142604
2.279816814895697,-0.5297333230062501,-1.8004525931425646
-0.5297333230062501,-1.2539956257142604,-1.8004525931425646
