0,1,2
-1.2204166797171465,-0.15093510144514116,-0.5408218243758619
-1.2204166797171465,-0.15093510144514116,-0.5054722247187562
-1.2204166797171465,-0.15093510144514116,-0.9259168423466694
-1.2204166797171465,-0.15093510144514116,0.6479724916950659
-1.2204166797171465,-0.15093510144514116,-0.1366875084750556
-1.2204166797171465,-0.15093510144514116,0.3934857261236758
-1.2204166797171465,-0.15093510144514116,0.31044032724831516
-1.2204166797171465,-0.15093510144514116,-1.435408858725565
-1.2204166797171465,-0.5408218243758619,-0.5054722247187562
-1.2204166797171465,-0.5408218243758619,-0.9259168423466694
-1.2204166797171465,-0.5408218243758619,0.6479724916950659
-1.2204166797171465,-0.5408218243758619,-0.1366875084750556
-1.2204166797171465,-0.5408218243758619,0.3934857261236758
-1.2204166797171465,-0.5408218243758619,0.31044032724831516
-1.2204166797171465,-0.5408218243758619,-1.435408858725565
-1.2204166797171465,-0.5054722247187562,-0.9259168423466694
-1.2204166797171465,-0.5054722247187562,0.6479724916950659
-1.2204166797171465,-0.5054722247187562,-0.1366875084750556
-1.2204166797171465,-0.5054722247187562,0.3934857261236758
-1.2204166797171465,-0.5054722247187562,0.31044032724831516
-1.2204166797171465,-0.5054722247187562,-1.435408858725565
-1.2204166797171465,-0.9259168423466694,0.31044032724831516
-1.2204166797171465,-0.9259168423466694,-1.435408858725565
-1.2204166797171465,-0.9259168423466694,0.6479724916950659
-1.2204166797171465,-0.9259168423466694,-0.1366875084750556
-1.2204166797171465,-0.9259168423466694,0.3934857261236758
-1.2204166797171465,0.6479724916950659,0.31044032724831516
-1.2204166797171465,0.6479724916950659,-1.435408858725565
-1.2204166797171465,0.6479724916950659,-0.1366875084750556
-1.2204166797171465,0.6479724916950659,0.3934857261236758
-1.2204166797171465,-0.1366875084750556,0.31044032724831516
-1.2204166797171465,-0.1366875084750556,-1.435408858725565
-1.2204166797171465,-0.1366875084750556,0.3934857261236758
-1.2204166797171465,0.3934857261236758,0.31044032724831516
-1.2204166797171465,0.3934857261236758,-1.435408858725565
-1.2204166797171465,0.31044032724831516,-1.435408858725565
-0.15093510144514116,-0.5408218243758619,-0.5054722247187562
-0.15093510144514116,-0.5408218243758619,-0.9259168423466694
-0.15093510144514116,-0.5408218243758619,0.6479724916950659
-0.15093510144514116,-0.5408218243758619,-0.1366875084750556
-0.15093510144514116,-0.5408218243758619,0.3934857261236758
-0.15093510144514116,-0.5408218243758619,0.31044032724831516
-0.15093510144514116,-0.5408218243758619,-1.435408858725565
-0.15093510144514116,-0.5054722247187562,-0.9259168423466694
-0.15093510144514116,-0.5054722247187562,0.6479724916950659
-0.15093510144514116,-0.5054722247187562,-0.1366875084750556
-0.15093510144514116,-0.5054722247187562,0.3934857261236758
-0.15093510144514116,-0.5054722247187562,0.31044032724831516
-0.15093510144514116,-0.5054722247187562,-1.435408858725565
-0.15093510144514116,-0.9259168423466694,0.31044032724831516
-0.15093510144514116,-0.9259168423466694,-1.435408858725565
-0.15093510144514116,-0.9259168423466694,0.6479724916950659
-0.15093510144514116,-0.9259168423466694,-0.1366875084750556
-0.15093510144514116,-0.9259168423466694,0.3934857261236758
-0.15093510144514116,0.6479724916950659,0.31044032724831516
-0.15093510144514116,0.6479724916950659,-1.435408858725565
-0.15093510144514116,0.6479724916950659,-0.1366875084750556
-0.15093510144514116,0.6479724916950659,0.3934857261236758
-0.15093510144514116,-0.1366875084750556,0.31044032724831516
-0.15093510144514116,-0.1366875084750556,-1.435408858725565
-0.15093510144514116,-0.1366875084750556,0.3934857261236758
-0.15093510144514116,0.3934857261236758,0.31044032724831516
-0.15093510144514116,0.3934857261236758,-1.435408858725565
-0.15093510144514116,0.31044032724831516,-1.435408858725565
-0.5408218243758619,-0.5054722247187562,-0.9259168423466694
-0.5408218243758619,-0.5054722247187562,0.6479724916950659
-0.5408218243758619,-0.5054722247187562,-0.1366875084750556
-0.5408218243758619,-0.5054722247187562,0.3934857261236758
-0.5408218243758619,-0.5054722247187562,0.31044032724831516
-0.5408218243758619,-0.5054722247187562,-1.435408858725565
-0.5408218243758619,-0.9259168423466694,0.31044032724831516
-0.5408218243758619,-0.9259168423466694,-1.435408858725565
-0.5408218243758619,-0.9259168423466694,0.6479724916950659
-0.5408218243758619,-0.9259168423466694,-0.1366875084750556
-0.5408218243758619,-0.9259168423466694,0.3934857261236758
-0.5408218243758619,0.6479724916950659,0.31044032724831516
-0.5408218243758619,0.6479724916950659,-1.435408858725565
-0.5408218243758619,0.6479724916950659,-0.1366875084750556
-0.5408218243758619,0.6479724916950659,0.3934857261236758
-0.5408218243758619,-0.1366875084750556,0.31044032724831516
-0.5408218243758619,-0.1366875084750556,-1.435408858725565
-0.5408218243758619,-0.1366875084750556,0.3934857261236758
-0.5408218243758619,0.3934857261236758,0.31044032724831516
-0.5408218243758619,0.3934857261236758,-1.435408858725565
-0.5408218243758619,0.31044032724831516,-1.435408858725565
-0.5054722247187562,-0.9259168423466694,0.31044032724831516
-0.5054722247187562,-0.9259168423466694,-1.435408858725565
-0.5054722247187562,-0.9259168423466694,0.6479724916950659
-0.5054722247187562,-0.9259168423466694,-0.1366875084750556
-0.5054722247187562,-0.9259168423466694,0.3934857261236758
-0.5054722247187562,0.6479724916950659,0.31044032724831516
-0.5054722247187562,0.6479724916950659,-1.435408858725565
-0.5054722247187562,0.6479724916950659,-0.1366875084750556
-0.5054722247187562,0.6479724916950659,0.3934857261236758
-0.5054722247187562,-0.1366875084750556,0.31044032724831516
-0.5054722247187562,-0.1366875084750556,-1.435408858725565
-0.5054722247187562,-0.1366875084750556,0.3934857261236758
-0.5054722247187562,0.3934857261236758,0.31044032724831516
-0.5054722247187562,0.3934857261236758,-1.435408858725565
-0.5054722247187562,0.31044032724831516,-1.435408858725565
-0.9259168423466694,0.31044032724831516,-1.435408858725565
-0.9259168423466694,0.6479724916950659,0.31044032724831516
-0.9259168423466694,0.6479724916950659,-1.435408858725565
-0.9259168423466694,0.6479724916950659,-0.1366875084750556
-0.9259168423466694,0.6479724916950659,0.3934857261236758
-0.9259168423466694,-0.1366875084750556,0.31044032724831516
-0.9259168423466694,-0.1366875084750556,-1.435408858725565
-0.9259168423466694,-0.1366875084750556,0.3934857261236758
-0.9259168423466694,0.3934857261236758,0.31044032724831516
-0.9259168423466694,0.3934857261236758,-1.435408858725565
0.6479724916950659,0.31044032724831516,-1.435408858725565
0.6479724916950659,-0.1366875084750556,0.31044032724831516
0.6479724916950659,-0.1366875084750556,-1.435408858725565
0.6479724916950659,-0.1366875084750556,0.3934857261236758
0.6479724916950659,0.3934857261236758,0.31044032724831516
0.6479724916950659,0.3934857261236758,-1.435408858725565
-0.1366875084750556,0.31044032724831516,-1.435408858725565
-0.1366875084750556,0.3934857261236758,0.31044032724831516
-0.1366875084750556,0.3934857261236758,-1.435408858725565
0.3934857261236758,0.31044032724831516,-1.435408858725565
