0,1,2
-0.6750792248201936,0.15545767804888724,-1.2072820991833368
-0.6750792248201936,0.15545767804888724,-0.6045083673080969
-0.6750792248201936,0.15545767804888724,2.5842543612287763
-0.6750792248201936,0.15545767804888724,-0.8906255979413669
-0.6750792248201936,0.15545767804888724,0.7000361953435994
-0.6750792248201936,0.15545767804888724,1.5207918377486824
-0.6750792248201936,0.15545767804888724,-0.09288480122218694
-0.6750792248201936,0.15545767804888724,-0.41528761300592826
-0.6750792248201936,-1.2072820991833368,-0.6045083673080969
-0.6750792248201936,-1.2072820991833368,2.5842543612287763
-0.6750792248201936,-1.2072820991833368,-0.8906255979413669
-0.6750792248201936,-1.2072820991833368,0.7000361953435994
-0.6750792248201936,-1.2072820991833368,1.5207918377486824
-0.6750792248201936,-1.2072820991833368,-0.09288480122218694
-0.6750792248201936,-1.2072820991833368,-0.41528761300592826
-0.6750792248201936,-0.6045083673080969,2.5842543612287763
-0.6750792248201936,-0.6045083673080969,-0.8906255979413669
-0.6750792248201936,-0.6045083673080969,0.7000361953435994
-0.6750792248201936,-0.6045083673080969,1.5207918377486824
-0.6750792248201936,-0.6045083673080969,-0.09288480122218694
-0.6750792248201936,-0.6045083673080969,-0.41528761300592826
-0.6750792248201936,2.5842543612287763,-0.09288480122218694
-0.6750792248201936,2.5842543612287763,-0.41528761300592826
-0.6750792248201936,2.5842543612287763,-0.8906255979413669
-0.6750792248201936,2.5842543612287763,0.7000361953435994
-0.6750792248201936,2.5842543612287763,1.5207918377486824
-0.6750792248201936,-0.8906255979413669,-0.09288480122218694
-0.6750792248201936,-0.8906255979413669,-0.41528761300592826
-0.6750792248201936,-0.8906255979413669,0.7000361953435994
-0.6750792248201936,-0.8906255979413669,1.5207918377486824
-0.6750792248201936,0.7000361953435994,-0.09288480122218694
-0.6750792248201936,0.7000361953435994,-0.41528761300592826
-0.6750792248201936,0.7000361953435994,1.5207918377486824
-0.6750792248201936,1.5207918377486824,-0.09288480122218694
-0.6750792248201936,1.5207918377486824,-0.41528761300592826
-0.6750792248201936,-0.09288480122218694,-0.41528761300592826
0.15545767804888724,-1.2072820991833368,-0.6045083673080969
0.15545767804888724,-1.2072820991833368,2.5842543612287763
0.15545767804888724,-1.2072820991833368,-0.8906255979413669
0.15545767804888724,-1.2072820991833368,0.7000361953435994
0.15545767804888724,-1.2072820991833368,1.5207918377486824
0.15545767804888724,-1.2072820991833368,-0.09288480122218694
0.15545767804888724,-1.2072820991833368,-0.41528761300592826
0.15545767804888724,-0.6045083673080969,2.5842543612287763
0.15545767804888724,-0.6045083673080969,-0.8906255979413669
0.15545767804888724,-0.6045083673080969,0.7000361953435994
0.15545767804888724,-0.6045083673080969,1.5207918377486824
0.15545767804888724,-0.6045083673080969,-0.09288480122218694
0.15545767804888724,-0.6045083673080969,-0.41528761300592826
0.15545767804888724,2.5842543612287763,-0.09288480122218694
0.15545767804888724,2.5842543612287763,-0.41528761300592826
0.15545767804888724,2.5842543612287763,-0.8906255979413669
0.15545767804888724,2.5842543612287763,0.7000361953435994
0.15545767804888724,2.5842543612287763,1.5207918377486824
0.15545767804888724,-0.8906255979413669,-0.09288480122218694
0.15545767804888724,-0.8906255979413669,-0.41528761300592826
0.15545767804888724,-0.8906255979413669,0.7000361953435994
0.15545767804888724,-0.8906255979413669,1.5207918377486824
0.15545767804888724,0.7000361953435994,-0.09288480122218694
0.15545767804888724,0.7000361953435994,-0.41528761300592826
0.15545767804888724,0.7000361953435994,1.5207918377486824
0.15545767804888724,1.5207918377486824,-0.09288480122218694
0.15545767804888724,1.5207918377486824,-0.41528761300592826
0.15545767804888724,-0.09288480122218694,-0.41528761300592826
-1.2072820991833368,-0.6045083673080969,2.5842543612287763
-1.2072820991833368,-0.6045083673080969,-0.8906255979413669
-1.2072820991833368,-0.6045083673080969,0.7000361953435994
-1.2072820991833368,-0.6045083673080969,1.5207918377486824
-1.2072820991833368,-0.6045083673080969,-0.09288480122218694
-1.2072820991833368,-0.6045083673080969,-0.41528761300592826
-1.2072820991833368,2.5842543612287763,-0.09288480122218694
-1.2072820991833368,2.5842543612287763,-0.41528761300592826
-1.2072820991833368,2.5842543612287763,-0.8906255979413669
-1.2072820991833368,2.5842543612287763,0.7000361953435994
-1.2072820991833368,2.5842543612287763,1.5207918377486824
-1.2072820991833368,-0.8906255979413669,-0.09288480122218694
-1.2072820991833368,-0.8906255979413669,-0.41528761300592826
-1.2072820991833368,-0.8906255979413669,0.7000361953435994
-1.2072820991833368,-0.8906255979413669,1.5207918377486824
-1.2072820991833368,0.7000361953435994,-0.09288480122218694
-1.2072820991833368,0.7000361953435994,-0.41528761300592826
-1.2072820991833368,0.7000361953435994,1.5207918377486824
-1.2072820991833368,1.5207918377486824,-0.09288480122218694
-1.2072820991833368,1.5207918377486824,-0.41528761300592826
-1.2072820991833368,-0.09288480122218694,-0.41528761300592826
-0.6045083673080969,2.5842543612287763,-0.09288480122218694
-0.6045083673080969,2.5842543612287763,-0.41528761300592826
-0.6045083673080969,2.5842543612287763,-0.8906255979413669
-0.6045083673080969,2.5842543612287763,0.7000361953435994
-0.6045083673080969,2.5842543612287763,1.5207918377486824
-0.6045083673080969,-0.8906255979413669,-0.09288480122218694
-0.6045083673080969,-0.8906255979413669,-0.41528761300592826
-0.6045083673080969,-0.8906255979413669,0.7000361953435994
-0.6045083673080969,-0.8906255979413669,1.5207918377486824
-0.6045083673080969,0.7000361953435994,-0.09288480122218694
-0.6045083673080969,0.7000361953435994,-0.41528761300592826
-0.6045083673080969,0.7000361953435994,1.5207918377486824
-0.6045083673080969,1.5207918377486824,-0.09288480122218694
-0.6045083673080969,1.5207918377486824,-0.41528761300592826
-0.6045083673080969,-0.09288480122218694,-0.41528761300592826
2.5842543612287763,-0.09288480122218694,-0.41528761300592826
2.5842543612287763,-0.8906255979413669,-0.09288480122218694
2.5842543612287763,-0.8906255979413669,-0.41528761300592826
2.5842543612287763,-0.8906255979413669,0.7000361953435994
2.5842543612287763,-0.8906255979413669,1.5207918377486824
2.5842543612287763,0.7000361953435994,-0.09288480122218694
2.5842543612287763,0.7000361953435994,-0.41528761300592826
2.5842543612287763,0.7000361953435994,1.5207918377486824
2.5842543612287763,1.5207918377486824,-0.09288480122218694
2.5842543612287763,1.5207918377486824,-0.41528761300592826
-0.8906255979413669,-0.09288480122218694,-0.41528761300592826
-0.8906255979413669,0.7000361953435994,-0.09288480122218694
-0.8906255979413669,0.7000361953435994,-0.41528761300592826
-0.8906255979413669,0.7000361953435994,1.5207918377486824
-0.8906255979413669,1.5207918377486824,-0.09288480122218694
-0.8906255979413669,1.5207918377486824,-0.41528761300592826
0.7000361953435994,-0.09288480122218694,-0.41528761300592826
0.7000361953435994,1.5207918377486824,-0.09288480122218694
0.7000361953435994,1.5207918377486824,-0.41528761300592826
1.5207918377486824,-0.09288480122218694,-0.41528761300592826
