0,1,2
-1.3580687531300226,0.2505400038117783,1.596191000857069
-1.3580687531300226,0.2505400038117783,-1.6582397016383887
-1.3580687531300226,0.2505400038117783,-0.7553534372893927
-1.3580687531300226,0.2505400038117783,-1.2546932929513988
-1.3580687531300226,0.2505400038117783,-1.0749361647810671
-1.3580687531300226,0.2505400038117783,-1.9441836433144508
-1.3580687531300226,0.2505400038117783,0.23876879148899205
-1.3580687531300226,0.2505400038117783,1.2277459912350086
-1.3580687531300226,1.596191000857069,-1.6582397016383887
-1.3580687531300226,1.596191000857069,-0.7553534372893927
-1.3580687531300226,1.596191000857069,-1.2546932929513988
-1.3580687531300226,1.596191000857069,-1.0749361647810671
-1.3580687531300226,1.596191000857069,-1.9441836433144508
-1.3580687531300226,1.596191000857069,0.23876879148899205
-1.3580687531300226,1.596191000857069,1.2277459912350086
-1.3580687531300226,-1.6582397016383887,-0.7553534372893927
-1.3580687531300226,-1.6582397016383887,-1.2546932929513988
-1.3580687531300226,-1.6582397016383887,-1.0749361647810671
-1.3580687531300226,-1.6582397016383887,-1.9441836433144508
-1.3580687531300226,-1.6582397016383887,0.23876879148899205
-1.3580687531300226,-1.6582397016383887,1.2277459912350086
-1.3580687531300226,-0.7553534372893927,0.23876879148899205
-1.3580687531300226,-0.7553534372893927,1.2277459912350086
-1.3580687531300226,-0.7553534372893927,-1.2546932929513988
-1.3580687531300226,-0.7553534372893927,-1.0749361647810671
-1.3580687531300226,-0.7553534372893927,-1.9441836433144508
-1.3580687531300226,-1.2546932929513988,0.23876879148899205
-1.3580687531300226,-1.2546932929513988,1.2277459912350086
-1.3580687531300226,-1.2546932929513988,-1.0749361647810671
-1.3580687531300226,-1.2546932929513988,-1.9441836433144508
-1.3580687531300226,-1.0749361647810671,0.23876879148899205
-1.3580687531300226,-1.0749361647810671,1.2277459912350086
-1.3580687531300226,-1.0749361647810671,-1.9441836433144508
-1.3580687531300226,-1.9441836433144508,0.23876879148899205
-1.3580687531300226,-1.9441836433144508,1.2277459912350086
-1.3580687531300226,0.23876879148899205,1.2277459912350086
0.2505400038117783,1.596191000857069,-1.6582397016383887
0.2505400038117783,1.596191000857069,-0.7553534372893927
0.2505400038117783,1.596191000857069,-1.2546932929513988
0.2505400038117783,1.596191000857069,-1.0749361647810671
0.2505400038117783,1.596191000857069,-1.9441836433144508
0.2505400038117783,1.596191000857069,0.23876879148899205
0.2505400038117783,1.596191000857069,1.2277459912350086
0.2505400038117783,-1.6582397016383887,-0.7553534372893927
0.2505400038117783,-1.6582397016383887,-1.2546932929513988
0.2505400038117783,-1.6582397016383887,-1.0749361647810671
0.2505400038117783,-1.6582397016383887,-1.9441836433144508
0.2505400038117783,-1.6582397016383887,0.23876879148899205
0.2505400038117783,-1.6582397016383887,1.2277459912350086
0.2505400038117783,-0.7553534372893927,0.23876879148899205
0.2505400038117783,-0.7553534372893927,1.2277459912350086
0.2505400038117783,-0.7553534372893927,-1.2546932929513988
0.2505400038117783,-0.7553534372893927,-1.0749361647810671
0.2505400038117783,-0.7553534372893927,-1.9441836433144508
0.2505400038117783,-1.2546932929513988,0.23876879148899205
0.2505400038117783,-1.2546932929513988,1.2277459912350086
0.2505400038117783,-1.2546932929513988,-1.0749361647810671
0.2505400038117783,-1.2546932929513988,-1.9441836433144508
0.2505400038117783,-1.0749361647810671,0.23876879148899205
0.2505400038117783,-1.0749361647810671,1.2277459912350086
0.2505400038117783,-1.0749361647810671,-1.9441836433144508
0.2505400038117783,-1.9441836433144508,0.23876879148899205
0.2505400038117783,-1.9441836433144508,1.2277459912350086
0.2505400038117783,0.23876879148899205,1.2277459912350086
1.596191000857069,-1.6582397016383887,-0.7553534372893927
1.596191000857069,-1.6582397016383887,-1.2546932929513988
1.596191000857069,-1.6582397016383887,-1.0749361647810671
1.596191000857069,-1.6582397016383887,-1.9441836433144508
1.596191000857069,-1.6582397016383887,0.23876879148899205
1.596191000857069,-1.6582397016383887,1.2277459912350086
1.596191000857069,-0.7553534372893927,0.23876879148899205
1.596191000857069,-0.7553534372893927,1.2277459912350086
1.596191000857069,-0.7553534372893927,-1.2546932929513988
1.596191000857069,-0.7553534372893927,-1.0749361647810671
1.596191000857069,-0.7553534372893927,-1.9441836433144508
1.596191000857069,-1.2546932929513988,0.23876879148899205
1.596191000857069,-1.2546932929513988,1.2277459912350086
1.596191000857069,-1.2546932929513988,-1.0749361647810671
1.596191000857069,-1.2546932929513988,-1.9441836433144508
1.596191000857069,-1.0749361647810671,0.23876879148899205
1.596191000857069,-1.0749361647810671,1.2277459912350086
1.596191000857069,-1.0749361647810671,-1.9441836433144508
1.596191000857069,-1.9441836433144508,0.23876879148899205
1.596191000857069,-1.9441836433144508,1.2277459912350086
1.596191000857069,0.23876879148899205,1.2277459912350086
-1.6582397016383887,-0.7553534372893927,0.23876879148899205
-1.6582397016383887,-0.7553534372893927,1.2277459912350086
-1.6582397016383887,-0.7553534372893927,-1.2546932929513988
-1.6582397016383887,-0.7553534372893927,-1.0749361647810671
-1.6582397016383887,-0.7553534372893927,-1.9441836433144508
-1.6582397016383887,-1.2546932929513988,0.23876879148899205
-1.6582397016383887,-1.2546932929513988,1.2277459912350086
-1.6582397016383887,-1.2546932929513988,-1.0749361647810671
-1.6582397016383887,-1.2546932929513988,-1.9441836433144508
-1.6582397016383887,-1.0749361647810671,0.23876879148899205
-1.6582397016383887,-1.0749361647810671,1.2277459912350086
-1.6582397016383887,-1.0749361647810671,-1.9441836433144508
-1.6582397016383887,-1.9441836433144508,0.23876879148899205
-1.6582397016383887,-1.9441836433144508,1.2277459912350086
-1.6582397016383887,0.23876879148899205,1.2277459912350086
-0.7553534372893927,0.23876879148899205,1.2277459912350086
-0.7553534372893927,-1.2546932929513988,0.23876879148899205
-0.7553534372893927,-1.2546932929513988,1.2277459912350086
-0.7553534372893927,-1.2546932929513988,-1.0749361647810671
-0.7553534372893927,-1.2546932929513988,-1.9441836433144508
-0.7553534372893927,-1.0749361647810671,0.23876879148899205
-0.7553534372893927,-1.0749361647810671,1.2277459912350086
-0.7553534372893927,-1.0749361647810671,-1.9441836433144508
-0.7553534372893927,-1.9441836433144508,0.23876879148899205
-0.7553534372893927,-1.9441836433144508,1.2277459912350086
-1.2546932929513988,0.23876879148899205,1.2277459912350086
-1.2546932929513988,-1.0749361647810671,0.23876879148899205
-1.2546932929513988,-1.0749361647810671,1.2277459912350086
-1.2546932929513988,-1.0749361647810671,-1.9441836433144508
-1.2546932929513988,-1.9441836433144508,0.23876879148899205
-1.2546932929513988,-1.9441836433144508,1.2277459912350086
-1.0749361647810671,0.23876879148899205,1.2277459912350086
-1.0749361647810671,-1.9441836433144508,0.23876879148899205
-1.0749361647810671,-1.9441836433144508,1.2277459912350086
-1.9441836433144508,0.23876879148899205,1.2277459912350086
