0,1,2
0.8673619601700266,-0.7805725045433368,0.22503719853329157
0.8673619601700266,-0.7805725045433368,0.669385160936035
0.8673619601700266,-0.7805725045433368,0.9337222107917108
0.8673619601700266,-0.7805725045433368,1.3917574019521752
0.8673619601700266,-0.7805725045433368,-0.2559900467891443
0.8673619601700266,-0.7805725045433368,0.19532887812201755
0.8673619601700266,-0.7805725045433368,0.2416512242770969
0.8673619601700266,-0.7805725045433368,-2.371732569904037
0.8673619601700266,0.22503719853329157,0.669385160936035
0.8673619601700266,0.22503719853329157,0.9337222107917108
0.8673619601700266,0.22503719853329157,1.3917574019521752
0.8673619601700266,0.22503719853329157,-0.2559900467891443
0.8673619601700266,0.22503719853329157,0.19532887812201755
0.8673619601700266,0.22503719853329157,0.2416512242770969
0.8673619601700266,0.22503719853329157,-2.371732569904037
0.8673619601700266,0.669385160936035,0.9337222107917108
0.8673619601700266,0.669385160936035,1.3917574019521752
0.8673619601700266,0.669385160936035,-0.2559900467891443
0.8673619601700266,0.669385160936035,0.19532887812201755
0.8673619601700266,0.669385160936035,0.2416512242770969
0.8673619601700266,0.669385160936035,-2.371732569904037
0.8673619601700266,0.9337222107917108,0.2416512242770969
0.8673619601700266,0.9337222107917108,-2.371732569904037
0.8673619601700266,0.9337222107917108,1.3917574019521752
0.8673619601700266,0.9337222107917108,-0.2559900467891443
0.8673619601700266,0.9337222107917108,0.19532887812201755
0.8673619601700266,1.3917574019521752,0.2416512242770969
0.8673619601700266,1.3917574019521752,-2.371732569904037
0.8673619601700266,1.3917574019521752,-0.2559900467891443
0.8673619601700266,1.3917574019521752,0.19532887812201755
0.8673619601700266,-0.2559900467891443,0.2416512242770969
0.8673619601700266,-0.2559900467891443,-2.371732569904037
0.8673619601700266,-0.2559900467891443,0.19532887812201755
0.8673619601700266,0.19532887812201755,0.2416512242770969
0.8673619601700266,0.19532887812201755,-2.371732569904037
0.8673619601700266,0.2416512242770969,-2.371732569904037
-0.7805725045433368,0.22503719853329157,0.669385160936035
-0.7805725045433368,0.22503719853329157,0.9337222107917108
-0.7805725045433368,0.22503719853329157,1.3917574019521752
-0.7805725045433368,0.22503719853329157,-0.2559900467891443
-0.7805725045433368,0.22503719853329157,0.19532887812201755
-0.7805725045433368,0.22503719853329157,0.2416512242770969
-0.7805725045433368,0.22503719853329157,-2.371732569904037
-0.7805725045433368,0.669385160936035,0.9337222107917108
-0.7805725045433368,0.669385160936035,1.3917574019521752
-0.7805725045433368,0.669385160936035,-0.2559900467891443
-0.7805725045433368,0.669385160936035,0.19532887812201755
-0.7805725045433368,0.669385160936035,0.2416512242770969
-0.7805725045433368,0.669385160936035,-2.371732569904037
-0.7805725045433368,0.9337222107917108,0.2416512242770969
-0.7805725045433368,0.9337222107917108,-2.371732569904037
-0.7805725045433368,0.9337222107917108,1.3917574019521752
-0.7805725045433368,0.9337222107917108,-0.2559900467891443
-0.7805725045433368,0.9337222107917108,0.19532887812201755
-0.7805725045433368,1.3917574019521752,0.2416512242770969
-0.7805725045433368,1.3917574019521752,-2.371732569904037
-0.7805725045433368,1.3917574019521752,-0.2559900467891443
-0.7805725045433368,1.3917574019521752,0.19532887812201755
-0.7805725045433368,-0.2559900467891443,0.2416512242770969
-0.7805725045433368,-0.2559900467891443,-2.371732569904037
-0.7805725045433368,-0.2559900467891443,0.19532887812201755
-0.7805725045433368,0.19532887812201755,0.2416512242770969
-0.7805725045433368,0.19532887812201755,-2.371732569904037
-0.7805725045433368,0.2416512242770969,-2.371732569904037
0.22503719853329157,0.669385160936035,0.9337222107917108
0.22503719853329157,0.669385160936035,1.3917574019521752
0.22503719853329157,0.669385160936035,-0.2559900467891443
0.22503719853329157,0.669385160936035,0.19532887812201755
0.22503719853329157,0.669385160936035,0.2416512242770969
0.22503719853329157,0.669385160936035,-2.371732569904037
0.22503719853329157,0.9337222107917108,0.2416512242770969
0.22503719853329157,0.9337222107917108,-2.371732569904037
0.22503719853329157,0.9337222107917108,1.3917574019521752
0.22503719853329157,0.9337222107917108,-0.2559900467891443
0.22503719853329157,0.9337222107917108,0.19532887812201755
0.22503719853329157,1.3917574019521752,0.2416512242770969
0.22503719853329157,1.3917574019521752,-2.371732569904037
0.22503719853329157,1.3917574019521752,-0.2559900467891443
0.22503719853329157,1.3917574019521752,0.19532887812201755
0.22503719853329157,-0.2559900467891443,0.2416512242770969
0.22503719853329157,-0.2559900467891443,-2.371732569904037
0.22503719853329157,-0.2559900467891443,0.19532887812201755
0.22503719853329157,0.19532887812201755,0.2416512242770969
0.22503719853329157,0.19532887812201755,-2.371732569904037
0.22503719853329157,0.2416512242770969,-2.371732569904037
0.669385160936035,0.9337222107917108,0.2416512242770969
0.669385160936035,0.9337222107917108,-2.371732569904037
0.669385160936035,0.9337222107917108,1.3917574019521752
0.669385160936035,0.9337222107917108,-0.2559900467891443
0.669385160936035,0.9337222107917108,0.19532887812201755
0.669385160936035,1.3917574019521752,0.2416512242770969
0.669385160936035,1.3917574019521752,-2.371732569904037
0.669385160936035,1.3917574019521752,-0.2559900467891443
0.669385160936035,1.3917574019521752,0.19532887812201755
0.669385160936035,-0.2559900467891443,0.2416512242770969
0.669385160936035,-0.2559900467891443,-2.371732569904037
0.669385160936035,-0.2559900467891443,0.19532887812201755
0.669385160936035,0.19532887812201755,0.2416512242770969
0.669385160936035,0.19532887812201755,-2.371732569904037
0.669385160936035,0.2416512242770969,-2.371732569904037
0.9337222107917108,0.2416512242770969,-2.371732569904037
0.9337222107917108,1.3917574019521752,0.2416512242770969
0.9337222107917108,1.3917574019521752,-2.371732569904037
0.9337222107917108,1.3917574019521752,-0.2559900467891443
0.9337222107917108,1.3917574019521752,0.19532887812201755
0.9337222107917108,-0.2559900467891443,0.2416512242770969
0.9337222107917108,-0.2559900467891443,-2.371732569904037
0.9337222107917108,-0.2559900467891443,0.19532887812201755
0.9337222107917108,0.19532887812201755,0.2416512242770969
0.9337222107917108,0.19532887812201755,-2.371732569904037
1.3917574019521752,0.2416512242770969,-2.371732569904037
1.3917574019521752,-0.2559900467891443,0.2416512242770969
1.3917574019521752,-0.2559900467891443,-2.371732569904037
1.3917574019521752,-0.2559900467891443,0.19532887812201755
1.3917574019521752,0.19532887812201755,0.2416512242770969
1.3917574019521752,0.19532887812201755,-2.371732569904037
-0.2559900467891443,0.2416512242770969,-2.371732569904037
-0.2559900467891443,0.19532887812201755,0.2416512242770969
-0.2559900467891443,0.19532887812201755,-2.371732569904037
0.19532887812201755,0.2416512242770969,-2.371732569904037
