0,1,2
1.3035305280553473,0.9037073191688816,1.3994441884359567
1.3035305280553473,0.9037073191688816,-0.45235977085639695
1.3035305280553473,0.9037073191688816,-0.9371681172615489
1.3035305280553473,0.9037073191688816,0.19204159700055476
1.3035305280553473,0.9037073191688816,1.236525562260672
1.3035305280553473,0.9037073191688816,1.0955977917000106
1.3035305280553473,0.9037073191688816,-0.893828276771902
1.3035305280553473,0.9037073191688816,0.39755926689690807
1.3035305280553473,1.3994441884359567,-0.45235977085639695
1.3035305280553473,1.3994441884359567,-0.9371681172615489
1.3035305280553473,1.3994441884359567,0.19204159700055476
1.3035305280553473,1.3994441884359567,1.236525562260672
1.3035305280553473,1.3994441884359567,1.0955977917000106
1.3035305280553473,1.3994441884359567,-0.893828276771902
1.3035305280553473,1.3994441884359567,0.39755926689690807
1.3035305280553473,-0.45235977085639695,-0.9371681172615489
1.3035305280553473,-0.45235977085639695,0.19204159700055476
1.3035305280553473,-0.45235977085639695,1.236525562260672
1.3035305280553473,-0.45235977085639695,1.0955977917000106
1.3035305280553473,-0.45235977085639695,-0.893828276771902
1.3035305280553473,-0.45235977085639695,0.39755926689690807
1.3035305280553473,-0.9371681172615489,-0.893828276771902
1.3035305280553473,-0.9371681172615489,0.39755926689690807
1.3035305280553473,-0.9371681172615489,0.19204159700055476
1.3035305280553473,-0.9371681172615489,1.236525562260672
1.3035305280553473,-0.9371681172615489,1.0955977917000106
1.3035305280553473,0.19204159700055476,-0.893828276771902
1.3035305280553473,0.19204159700055476,0.39755926689690807
1.3035305280553473,0.19204159700055476,1.236525562260672
1.3035305280553473,0.19204159700055476,1.0955977917000106
1.3035305280553473,1.236525562260672,-0.893828276771902
1.3035305280553473,1.236525562260672,0.39755926689690807
1.3035305280553473,1.236525562260672,1.0955977917000106
1.3035305280553473,1.0955977917000106,-0.893828276771902
1.3035305280553473,1.0955977917000106,0.39755926689690807
1.3035305280553473,-0.893828276771902,0.39755926689690807
0.9037073191688816,1.3994441884359567,-0.45235977085639695
0.9037073191688816,1.3994441884359567,-0.9371681172615489
0.9037073191688816,1.3994441884359567,0.19204159700055476
0.9037073191688816,1.3994441884359567,1.236525562260672
0.9037073191688816,1.3994441884359567,1.0955977917000106
0.9037073191688816,1.3994441884359567,-0.893828276771902
0.9037073191688816,1.3994441884359567,0.39755926689690807
0.9037073191688816,-0.45235977085639695,-0.9371681172615489
0.9037073191688816,-0.45235977085639695,0.19204159700055476
0.9037073191688816,-0.45235977085639695,1.236525562260672
0.9037073191688816,-0.45235977085639695,1.0955977917000106
0.9037073191688816,-0.45235977085639695,-0.893828276771902
0.9037073191688816,-0.45235977085639695,0.39755926689690807
0.9037073191688816,-0.9371681172615489,-0.893828276771902
0.9037073191688816,-0.9371681172615489,0.39755926689690807
0.9037073191688816,-0.9371681172615489,0.19204159700055476
0.9037073191688816,-0.9371681172615489,1.236525562260672
0.9037073191688816,-0.9371681172615489,1.0955977917000106
0.9037073191688816,0.19204159700055476,-0.893828276771902
0.9037073191688816,0.19204159700055476,0.39755926689690807
0.9037073191688816,0.19204159700055476,1.236525562260672
0.9037073191688816,0.19204159700055476,1.0955977917000106
0.9037073191688816,1.236525562260672,-0.893828276771902
0.9037073191688816,1.236525562260672,0.39755926689690807
0.9037073191688816,1.236525562260672,1.0955977917000106
0.9037073191688816,1.0955977917000106,-0.893828276771902
0.9037073191688816,1.0955977917000106,0.39755926689690807
0.9037073191688816,-0.893828276771902,0.39755926689690807
1.3994441884359567,-0.45235977085639695,-0.9371681172615489
1.3994441884359567,-0.45235977085639695,0.19204159700055476
1.3994441884359567,-0.45235977085639695,1.236525562260672
1.3994441884359567,-0.45235977085639695,1.0955977917000106
1.3994441884359567,-0.45235977085639695,-0.893828276771902
1.3994441884359567,-0.45235977085639695,0.39755926689690807
1.3994441884359567,-0.9371681172615489,-0.893828276771902
1.3994441884359567,-0.9371681172615489,0.39755926689690807
1.3994441884359567,-0.9371681172615489,0.19204159700055476
1.3994441884359567,-0.9371681172615489,1.236525562260672
1.3994441884359567,-0.9371681172615489,1.0955977917000106
1.3994441884359567,0.19204159700055476,-0.893828276771902
1.3994441884359567,0.19204159700055476,0.39755926689690807
1.3994441884359567,0.19204159700055476,1.236525562260672
1.3994441884359567,0.19204159700055476,1.0955977917000106
1.3994441884359567,1.236525562260672,-0.893828276771902
1.3994441884359567,1.236525562260672,0.39755926689690807
1.3994441884359567,1.236525562260672,1.0955977917000106
1.3994441884359567,1.0955977917000106,-0.893828276771902
1.3994441884359567,1.0955977917000106,0.39755926689690807
1.3994441884359567,-0.893828276771902,0.39755926689690807
-0.45235977085639695,-0.9371681172615489,-0.893828276771902
-0.45235977085639695,-0.9371681172615489,0.39755926689690807
-0.45235977085639695,-0.9371681172615489,0.19204159700055476
-0.45235977085639695,-0.9371681172615489,1.236525562260672
-0.45235977085639695,-0.9371681172615489,1.0955977917000106
-0.45235977085639695,0.19204159700055476,-0.893828276771902
-0.45235977085639695,0.19204159700055476,0.39755926689690807
-0.45235977085639695,0.19204159700055476,1.236525562260672
-0.45235977085639695,0.19204159700055476,1.0955977917000106
-0.45235977085639695,1.236525562260672,-0.893828276771902
-0.45235977085639695,1.236525562260672,0.39755926689690807
-0.45235977085639695,1.236525562260672,1.0955977917000106
-0.45235977085639695,1.0955977917000106,-0.893828276771902
-0.45235977085639695,1.0955977917000106,0.39755926689690807
-0.45235977085639695,-0.893828276771902,0.39755926689690807
-0.9371681172615489,-0.893828276771902,0.39755926689690807
-0.9371681172615489,0.19204159700055476,-0.893828276771902
-0.9371681172615489,0.19204159700055476,0.39755926689690807
-0.9371681172615489,0.19204159700055476,1.236525562260672
-0.9371681172615489,0.19204159700055476,1.0955977917000106
-0.9371681172615489,1.236525562260672,-0.893828276771902
-0.9371681172615489,1.236525562260672,0.39755926689690807
-0.9371681172615489,1.236525562260672,1.0955977917000106
-0.9371681172615489,1.0955977917000106,-0.893828276771902
-0.9371681172615489,1.0955977917000106,0.39755926689690807
0.19204159700055476,-0.893828276771902,0.39755926689690807
0.19204159700055476,1.236525562260672,-0.893828276771902
0.19204159700055476,1.236525562260672,0.39755926689690807
0.19204159700055476,1.236525562260672,1.0955977917000106
0.19204159700055476,1.0955977917000106,-0.893828276771902
0.19204159700055476,1.0955977917000106,0.39755926689690807
1.236525562260672,-0.893828276771902,0.39755926689690807
1.236525562260672,1.0955977917000106,-0.893828276771902
1.236525562260672,1.0955977917000106,0.39755926689690807
1.0955977917000106,-0.893828276771902,0.39755926689690807
