0,1,2
-0.522073376924161,0.7495334454185056,1.296446268150217
-0.522073376924161,0.7495334454185056,-2.2450301482851236
-0.522073376924161,0.7495334454185056,0.1462458630813105
-0.522073376924161,0.7495334454185056,-0.02444210015261544
-0.522073376924161,0.7495334454185056,-0.462710621731558
-0.522073376924161,0.7495334454185056,-0.24447470904571034
-0.522073376924161,0.7495334454185056,-0.24263059239574053
-0.522073376924161,0.7495334454185056,-1.5128153214868
-0.522073376924161,1.296446268150217,-2.2450301482851236
-0.522073376924161,1.296446268150217,0.1462458630813105
-0.522073376924161,1.296446268150217,-0.02444210015261544
-0.522073376924161,1.296446268150217,-0.462710621731558
-0.522073376924161,1.296446268150217,-0.24447470904571034
-0.522073376924161,1.296446268150217,-0.24263059239574053
-0.522073376924161,1.296446268150217,-1.5128153214868
-0.522073376924161,-2.2450301482851236,0.1462458630813105
-0.522073376924161,-2.2450301482851236,-0.02444210015261544
-0.522073376924161,-2.2450301482851236,-0.462710621731558
-0.522073376924161,-2.2450301482851236,-0.24447470904571034
-0.522073376924161,-2.2450301482851236,-0.24263059239574053
-0.522073376924161,-2.2450301482851236,-1.5128153214868
-0.522073376924161,0.1462458630813105,-0.24263059239574053
-0.522073376924161,0.1462458630813105,-1.5128153214868
-0.522073376924161,0.1462458630813105,-0.02444210015261544
-0.522073376924161,0.1462458630813105,-0.462710621731558
-0.522073376924161,0.1462458630813105,-0.24447470904571034
-0.522073376924161,-0.02444210015261544,-0.24263059239574053
-0.522073376924161,-0.02444210015261544,-1.5128153214868
-0.522073376924161,-0.02444210015261544,-0.462710621731558
-0.522073376924161,-0.02444210015261544,-0.24447470904571034
-0.522073376924161,-0.462710621731558,-0.24263059239574053
-0.522073376924161,-0.462710621731558,-1.5128153214868
-0.522073376924161,-0.462710621731558,-0.24447470904571034
-0.522073376924161,-0.24447470904571034,-0.24263059239574053
-0.522073376924161,-0.24447470904571034,-1.5128153214868
-0.522073376924161,-0.24263059239574053,-1.5128153214868
0.7495334454185056,1.296446268150217,-2.2450301482851236
0.7495334454185056,1.296446268150217,0.1462458630813105
0.7495334454185056,1.296446268150217,-0.02444210015261544
0.7495334454185056,1.296446268150217,-0.462710621731558
0.7495334454185056,1.296446268150217,-0.24447470904571034
0.7495334454185056,1.296446268150217,-0.24263059239574053
0.7495334454185056,1.296446268150217,-1.5128153214868
0.7495334454185056,-2.2450301482851236,0.1462458630813105
0.7495334454185056,-2.2450301482851236,-0.02444210015261544
0.7495334454185056,-2.2450301482851236,-0.462710621731558
0.7495334454185056,-2.2450301482851236,-0.24447470904571034
0.7495334454185056,-2.2450301482851236,-0.24263059239574053
0.7495334454185056,-2.2450301482851236,-1.5128153214868
0.7495334454185056,0.1462458630813105,-0.24263059239574053
0.7495334454185056,0.1462458630813105,-1.5128153214868
0.7495334454185056,0.1462458630813105,-0.02444210015261544
0.7495334454185056,0.1462458630813105,-0.462710621731558
0.7495334454185056,0.1462458630813105,-0.24447470904571034
0.7495334454185056,-0.02444210015261544,-0.24263059239574053
0.7495334454185056,-0.02444210015261544,-1.5128153214868
0.7495334454185056,-0.02444210015261544,-0.462710621731558
0.7495334454185056,-0.02444210015261544,-0.24447470904571034
0.7495334454185056,-0.462710621731558,-0.24263059239574053
0.7495334454185056,-0.462710621731558,-1.5128153214868
0.7495334454185056,-0.462710621731558,-0.24447470904571034
0.7495334454185056,-0.24447470904571034,-0.24263059239574053
0.7495334454185056,-0.24447470904571034,-1.5128153214868
0.7495334454185056,-0.24263059239574053,-1.5128153214868
1.296446268150217,-2.2450301482851236,0.1462458630813105
1.296446268150217,-2.2450301482851236,-0.02444210015261544
1.296446268150217,-2.2450301482851236,-0.462710621731558
1.296446268150217,-2.2450301482851236,-0.24447470904571034
1.296446268150217,-2.2450301482851236,-0.24263059239574053
1.296446268150217,-2.2450301482851236,-1.5128153214868
1.296446268150217,0.1462458630813105,-0.24263059239574053
1.296446268150217,0.1462458630813105,-1.5128153214868
1.296446268150217,0.1462458630813105,-0.02444210015261544
1.296446268150217,0.1462458630813105,-0.462710621731558
1.296446268150217,0.1462458630813105,-0.24447470904571034
1.296446268150217,-0.02444210015261544,-0.24263059239574053
1.296446268150217,-0.02444210015261544,-1.5128153214868
1.296446268150217,-0.02444210015261544,-0.462710621731558
1.296446268150217,-0.02444210015261544,-0.24447470904571034
1.296446268150217,-0.462710621731558,-0.24263059239574053
1.296446268150217,-0.462710621731558,-1.5128153214868
1.296446268150217,-0.462710621731558,-0.24447470904571034
1.296446268150217,-0.24447470904571034,-0.24263059239574053
1.296446268150217,-0.24447470904571034,-1.5128153214868
1.296446268150217,-0.24263059239574053,-1.5128153214868
-2.2450301482851236,0.1462458630813105,-0.24263059239574053
-2.2450301482851236,0.1462458630813105,-1.5128153214868
-2.2450301482851236,0.1462458630813105,-0.02444210015261544
-2.2450301482851236,0.1462458630813105,-0.462710621731558
-2.2450301482851236,0.1462458630813105,-0.24447470904571034
-2.2450301482851236,-0.02444210015261544,-0.24263059239574053
-2.2450301482851236,-0.02444210015261544,-1.5128153214868
-2.2450301482851236,-0.02444210015261544,-0.462710621731558
-2.2450301482851236,-0.02444210015261544,-0.24447470904571034
-2.2450301482851236,-0.462710621731558,-0.24263059239574053
-2.2450301482851236,-0.462710621731558,-1.5128153214868
-2.2450301482851236,-0.462710621731558,-0.24447470904571034
-2.2450301482851236,-0.24447470904571034,-0.24263059239574053
-2.2450301482851236,-0.24447470904571034,-1.5128153214868
-2.2450301482851236,-0.24263059239574053,-1.5128153214868
0.1462458630813105,-0.24263059239574053,-1.5128153214868
0.1462458630813105,-0.02444210015261544,-0.24263059239574053
0.1462458630813105,-0.02444210015261544,-1.5128153214868
0.1462458630813105,-0.02444210015261544,-0.462710621731558
0.1462458630813105,-0.02444210015261544,-0.24447470904571034
0.1462458630813105,-0.462710621731558,-0.24263059239574053
0.1462458630813105,-0.462710621731558,-1.5128153214868
0.1462458630813105,-0.462710621731558,-0.24447470904571034
0.1462458630813105,-0.24447470904571034,-0.24263059239574053
0.1462458630813105,-0.24447470904571034,-1.5128153214868
-0.02444210015261544,-0.24263059239574053,-1.5128153214868
-0.02444210015261544,-0.462710621731558,-0.24263059239574053
-0.02444210015261544,-0.462710621731558,-1.5128153214868
-0.02444210015261544,-0.462710621731558,-0.24447470904571034
-0.02444210015261544,-0.24447470904571034,-0.24263059239574053
-0.02444210015261544,-0.24447470904571034,-1.5128153214868
-0.462710621731558,-0.24263059239574053,-1.5128153214868
-0.462710621731558,-0.24447470904571034,-0.24263059239574053
-0.462710621731558,-0.24447470904571034,-1.5128153214868
-0.24447470904571034,-0.24263059239574053,-1.5128153214868
