0,1,2
-0.6183244045821924,0.03248439492577156,0.3320950534610693
-0.6183244045821924,0.03248439492577156,-0.46706122554123464
-0.6183244045821924,0.03248439492577156,0.636919952901576
-0.6183244045821924,0.03248439492577156,-1.045725634462246
-0.6183244045821924,0.03248439492577156,-0.13713672616088343
-0.6183244045821924,0.03248439492577156,-1.1748367021332582
-0.6183244045821924,0.03248439492577156,0.15314997089659563
-0.6183244045821924,0.03248439492577156,-0.08617417501677715
-0.6183244045821924,0.3320950534610693,-0.46706122554123464
-0.6183244045821924,0.3320950534610693,0.636919952901576
-0.6183244045821924,0.3320950534610693,-1.045725634462246
-0.6183244045821924,0.3320950534610693,-0.13713672616088343
-0.6183244045821924,0.3320950534610693,-1.1748367021332582
-0.6183244045821924,0.3320950534610693,0.15314997089659563
-0.6183244045821924,0.3320950534610693,-0.08617417501677715
-0.6183244045821924,-0.46706122554123464,0.636919952901576
-0.6183244045821924,-0.46706122554123464,-1.045725634462246
-0.6183244045821924,-0.46706122554123464,-0.13713672616088343
-0.6183244045821924,-0.46706122554123464,-1.1748367021332582
-0.6183244045821924,-0.46706122554123464,0.15314997089659563
-0.6183244045821924,-0.46706122554123464,-0.08617417501677715
-0.6183244045821924,0.636919952901576,0.15314997089659563
-0.6183244045821924,0.636919952901576,-0.08617417501677715
-0.6183244045821924,0.636919952901576,-1.045725634462246
-0.6183244045821924,0.636919952901576,-0.13713672616088343
-0.6183244045821924,0.636919952901576,-1.1748367021332582
-0.6183244045821924,-1.045725634462246,0.15314997089659563
-0.6183244045821924,-1.045725634462246,-0.08617417501677715
-0.6183244045821924,-1.045725634462246,-0.13713672616088343
-0.6183244045821924,-1.045725634462246,-1.1748367021332582
-0.6183244045821924,-0.13713672616088343,0.15314997089659563
-0.6183244045821924,-0.13713672616088343,-0.08617417501677715
-0.6183244045821924,-0.13713672616088343,-1.1748367021332582
-0.6183244045821924,-1.1748367021332582,0.15314997089659563
-0.6183244045821924,-1.1748367021332582,-0.08617417501677715
-0.6183244045821924,0.15314997089659563,-0.08617417501677715
0.03248439492577156,0.3320950534610693,-0.46706122554123464
0.03248439492577156,0.3320950534610693,0.636919952901576
0.03248439492577156,0.3320950534610693,-1.045725634462246
0.03248439492577156,0.3320950534610693,-0.13713672616088343
0.03248439492577156,0.3320950534610693,-1.1748367021332582
0.03248439492577156,0.3320950534610693,0.15314997089659563
0.03248439492577156,0.3320950534610693,-0.08617417501677715
0.03248439492577156,-0.46706122554123464,0.636919952901576
0.03248439492577156,-0.46706122554123464,-1.045725634462246
0.03248439492577156,-0.46706122554123464,-0.13713672616088343
0.03248439492577156,-0.46706122554123464,-1.1748367021332582
0.03248439492577156,-0.46706122554123464,0.15314997089659563
0.03248439492577156,-0.46706122554123464,-0.08617417501677715
0.03248439492577156,0.636919952901576,0.15314997089659563
0.03248439492577156,0.636919952901576,-0.08617417501677715
0.03248439492577156,0.636919952901576,-1.045725634462246
0.03248439492577156,0.636919952901576,-0.13713672616088343
0.03248439492577156,0.636919952901576,-1.1748367021332582
0.03248439492577156,-1.045725634462246,0.15314997089659563
0.03248439492577156,-1.045725634462246,-0.08617417501677715
0.03248439492577156,-1.045725634462246,-0.13713672616088343
0.03248439492577156,-1.045725634462246,-1.1748367021332582
0.03248439492577156,-0.13713672616088343,0.15314997089659563
0.03248439492577156,-0.13713672616088343,-0.08617417501677715
0.03248439492577156,-0.13713672616088343,-1.1748367021332582
0.03248439492577156,-1.1748367021332582,0.15314997089659563
0.03248439492577156,-1.1748367021332582,-0.08617417501677715
0.03248439492577156,0.15314997089659563,-0.08617417501677715
0.3320950534610693,-0.46706122554123464,0.636919952901576
0.3320950534610693,-0.46706122554123464,-1.045725634462246
0.3320950534610693,-0.46706122554123464,-0.13713672616088343
0.3320950534610693,-0.46706122554123464,-1.1748367021332582
0.3320950534610693,-0.46706122554123464,0.15314997089659563
0.3320950534610693,-0.46706122554123464,-0.08617417501677715
0.3320950534610693,0.636919952901576,0.15314997089659563
0.3320950534610693,0.636919952901576,-0.08617417501677715
0.3320950534610693,0.636919952901576,-1.045725634462246
0.3320950534610693,0.636919952901576,-0.13713672616088343
0.3320950534610693,0.636919952901576,-1.1748367021332582
0.3320950534610693,-1.045725634462246,0.15314997089659563
0.3320950534610693,-1.045725634462246,-0.08617417501677715
0.3320950534610693,-1.045725634462246,-0.13713672616088343
0.3320950534610693,-1.045725634462246,-1.1748367021332582
0.3320950534610693,-0.13713672616088343,0.15314997089659563
0.3320950534610693,-0.13713672616088343,-0.08617417501677715
0.3320950534610693,-0.13713672616088343,-1.1748367021332582
0.3320950534610693,-1.1748367021332582,0.15314997089659563
0.3320950534610693,-1.1748367021332582,-0.08617417501677715
0.3320950534610693,0.15314997089659563,-0.08617417501677715
-0.46706122554123464,0.636919952901576,0.15314997089659563
-0.46706122554123464,0.636919952901576,-0.08617417501677715
-0.46706122554123464,0.636919952901576,-1.045725634462246
-0.46706122554123464,0.636919952901576,-0.13713672616088343
-0.46706122554123464,0.636919952901576,-1.1748367021332582
-0.46706122554123464,-1.045725634462246,0.15314997089659563
-0.46706122554123464,-1.045725634462246,-0.08617417501677715
-0.46706122554123464,-1.045725634462246,-0.13713672616088343
-0.46706122554123464,-1.045725634462246,-1.1748367021332582
-0.46706122554123464,-0.13713672616088343,0.15314997089659563
-0.46706122554123464,-0.13713672616088343,-0.08617417501677715
-0.46706122554123464,-0.13713672616088343,-1.1748367021332582
-0.46706122554123464,-1.1748367021332582,0.15314997089659563
-0.46706122554123464,-1.1748367021332582,-0.08617417501677715
-0.46706122554123464,0.15314997089659563,-0.08617417501677715
0.636919952901576,0.15314997089659563,-0.08617417501677715
0.636919952901576,-1.045725634462246,0.15314997089659563
0.636919952901576,-1.045725634462246,-0.08617417501677715
0.636919952901576,-1.045725634462246,-0.13713672616088343
0.636919952901576,-1.045725634462246,-1.1748367021332582
0.636919952901576,-0.13713672616088343,0.15314997089659563
0.636919952901576,-0.13713672616088343,-0.08617417501677715
0.636919952901576,-0.13713672616088343,-1.1748367021332582
0.636919952901576,-1.1748367021332582,0.15314997089659563
0.636919952901576,-1.1748367021332582,-0.08617417501677715
-1.045725634462246,0.15314997089659563,-0.08617417501677715
-1.045725634462246,-0.13713672616088343,0.15314997089659563
-1.045725634462246,-0.13713672616088343,-0.08617417501677715
-1.045725634462246,-0.13713672616088343,-1.1748367021332582
-1.045725634462246,-1.1748367021332582,0.15314997089659563
-1.045725634462246,-1.1748367021332582,-0.08617417501677715
-0.13713672616088343,0.15314997089659563,-0.08617417501677715
-0.13713672616088343,-1.1748367021332582,0.15314997089659563
-0.13713672616088343,-1.1748367021332582,-0.08617417501677715
-1.1748367021332582,0.15314997089659563,-0.08617417501677715
