0,1,2
-0.09908566978011997,-3.0373837168856195,1.8188189746869359
-0.09908566978011997,-3.0373837168856195,0.9018100380877839
-0.09908566978011997,-3.0373837168856195,0.05146114553702403
-0.09908566978011997,-3.0373837168856195,0.4728680845499232
-0.09908566978011997,-3.0373837168856195,-0.15882288958418672
-0.09908566978011997,-3.0373837168856195,-0.2766947006282431
-0.09908566978011997,-3.0373837168856195,0.18814657423535677
-0.09908566978011997,-3.0373837168856195,-0.3148999105946463
-0.09908566978011997,1.8188189746869359,0.9018100380877839
-0.09908566978011997,1.8188189746869359,0.05146114553702403
-0.09908566978011997,1.8188189746869359,0.4728680845499232
-0.09908566978011997,1.8188189746869359,-0.15882288958418672
-0.09908566978011997,1.8188189746869359,-0.2766947006282431
-0.09908566978011997,1.8188189746869359,0.18814657423535677
-0.09908566978011997,1.8188189746869359,-0.3148999105946463
-0.09908566978011997,0.9018100380877839,0.05146114553702403
-0.09908566978011997,0.9018100380877839,0.4728680845499232
-0.09908566978011997,0.9018100380877839,-0.15882288958418672
-0.09908566978011997,0.9018100380877839,-0.2766947006282431
-0.09908566978011997,0.9018100380877839,0.18814657423535677
-0.09908566978011997,0.9018100380877839,-0.3148999105946463
-0.09908566978011997,0.05146114553702403,0.18814657423535677
-0.09908566978011997,0.05146114553702403,-0.3148999105946463
-0.09908566978011997,0.05146114553702403,0.4728680845499232
-0.09908566978011997,0.05146114553702403,-0.15882288958418672
-0.09908566978011997,0.05146114553702403,-0.2766947006282431
-0.09908566978011997,0.4728680845499232,0.18814657423535677
-0.09908566978011997,0.4728680845499232,-0.3148999105946463
-0.09908566978011997,0.4728680845499232,-0.15882288958418672
-0.09908566978011997,0.4728680845499232,-0.2766947006282431
-0.09908566978011997,-0.15882288958418672,0.18814657423535677
-0.09908566978011997,-0.15882288958418672,-0.3148999105946463
-0.09908566978011997,-0.15882288958418672,-0.2766947006282431
-0.09908566978011997,-0.2766947006282431,0.18814657423535677
-0.09908566978011997,-0.2766947006282431,-0.3148999105946463
-0.09908566978011997,0.18814657423535677,-0.3148999105946463
-3.0373837168856195,1.8188189746869359,0.9018100380877839
-3.0373837168856195,1.8188189746869359,0.05146114553702403
-3.0373837168856195,1.8188189746869359,0.4728680845499232
-3.0373837168856195,1.8188189746869359,-0.15882288958418672
-3.0373837168856195,1.8188189746869359,-0.2766947006282431
-3.0373837168856195,1.8188189746869359,0.18814657423535677
-3.0373837168856195,1.8188189746869359,-0.3148999105946463
-3.0373837168856195,0.9018100380877839,0.05146114553702403
-3.0373837168856195,0.9018100380877839,0.4728680845499232
-3.0373837168856195,0.9018100380877839,-0.15882288958418672
-3.0373837168856195,0.9018100380877839,-0.2766947006282431
-3.0373837168856195,0.9018100380877839,0.18814657423535677
-3.0373837168856195,0.9018100380877839,-0.3148999105946463
-3.0373837168856195,0.05146114553702403,0.18814657423535677
-3.0373837168856195,0.05146114553702403,-0.3148999105946463
-3.0373837168856195,0.05146114553702403,0.4728680845499232
-3.0373837168856195,0.05146114553702403,-0.15882288958418672
-3.0373837168856195,0.05146114553702403,-0.2766947006282431
-3.0373837168856195,0.4728680845499232,0.18814657423535677
-3.0373837168856195,0.4728680845499232,-0.3148999105946463
-3.0373837168856195,0.4728680845499232,-0.15882288958418672
-3.0373837168856195,0.4728680845499232,-0.2766947006282431
-3.0373837168856195,-0.15882288958418672,0.18814657423535677
-3.0373837168856195,-0.15882288958418672,-0.3148999105946463
-3.0373837168856195,-0.15882288958418672,-0.2766947006282431
-3.0373837168856195,-0.2766947006282431,0.18814657423535677
-3.0373837168856195,-0.2766947006282431,-0.3148999105946463
-3.0373837168856195,0.18814657423535677,-0.3148999105946463
1.8188189746869359,0.9018100380877839,0.05146114553702403
1.8188189746869359,0.9018100380877839,0.4728680845499232
1.8188189746869359,0.9018100380877839,-0.15882288958418672
1.8188189746869359,0.9018100380877839,-0.2766947006282431
1.8188189746869359,0.9018100380877839,0.18814657423535677
1.8188189746869359,0.9018100380877839,-0.3148999105946463
1.8188189746869359,0.05146114553702403,0.18814657423535677
1.8188189746869359,0.05146114553702403,-0.3148999105946463
1.8188189746869359,0.05146114553702403,0.4728680845499232
1.8188189746869359,0.05146114553702403,-0.15882288958418672
1.8188189746869359,0.05146114553702403,-0.2766947006282431
1.8188189746869359,0.4728680845499232,0.18814657423535677
1.8188189746869359,0.4728680845499232,-0.3148999105946463
1.8188189746869359,0.4728680845499232,-0.15882288958418672
1.8188189746869359,0.4728680845499232,-0.2766947006282431
1.8188189746869359,-0.15882288958418672,0.18814657423535677
1.8188189746869359,-0.15882288958418672,-0.3148999105946463
1.8188189746869359,-0.15882288958418672,-0.2766947006282431
1.8188189746869359,-0.2766947006282431,0.18814657423535677
1.8188189746869359,-0.2766947006282431,-0.3148999105946463
1.8188189746869359,0.18814657423535677,-0.3148999105946463
0.9018100380877839,0.05146114553702403,0.18814657423535677
0.9018100380877839,0.05146114553702403,-0.3148999105946463
0.9018100380877839,0.05146114553702403,0.4728680845499232
0.9018100380877839,0.05146114553702403,-0.15882288958418672
0.9018100380877839,0.05146114553702403,-0.2766947006282431
0.9018100380877839,0.4728680845499232,0.18814657423535677
0.9018100380877839,0.4728680845499232,-0.3148999105946463
0.9018100380877839,0.4728680845499232,-0.15882288958418672
0.9018100380877839,0.4728680845499232,-0.2766947006282431
0.9018100380877839,-0.15882288958418672,0.18814657423535677
0.9018100380877839,-0.15882288958418672,-0.3148999105946463
0.9018100380877839,-0.15882288958418672,-0.2766947006282431
0.9018100380877839,-0.2766947006282431,0.18814657423535677
0.9018100380877839,-0.2766947006282431,-0.3148999105946463
0.9018100380877839,0.18814657423535677,-0.3148999105946463
0.05146114553702403,0.18814657423535677,-0.3148999105946463
0.05146114553702403,0.4728680845499232,0.18814657423535677
0.05146114553702403,0.4728680845499232,-0.3148999105946463
0.05146114553702403,0.4728680845499232,-0.15882288958418672
0.05146114553702403,0.4728680845499232,-0.2766947006282431
0.05146114553702403,-0.15882288958418672,0.18814657423535677
0.05146114553702403,-0.15882288958418672,-0.3148999105946463
0.05146114553702403,-0.15882288958418672,-0.2766947006282431
0.05146114553702403,-0.2766947006282431,0.18814657423535677
0.05146114553702403,-0.2766947006282431,-0.3148999105946463
0.4728680845499232,0.18814657423535677,-0.3148999105946463
0.4728680845499232,-0.15882288958418672,0.18814657423535677
0.4728680845499232,-0.15882288958418672,-0.3148999105946463
0.4728680845499232,-0.15882288958418672,-0.2766947006282431
0.4728680845499232,-0.2766947006282431,0.18814657423535677
0.4728680845499232,-0.2766947006282431,-0.3148999105946463
-0.15882288958418672,0.18814657423535677,-0.3148999105946463
-0.15882288958418672,-0.2766947006282431,0.18814657423535677
-0.15882288958418672,-0.2766947006282431,-0.3148999105946463
-0.2766947006282431,0.18814657423535677,-0.3148999105946463
