0,1,2
1.3893338977724108,0.20086700149982006,-0.7333536909552563
1.3893338977724108,0.20086700149982006,0.6006860307400026
1.3893338977724108,0.20086700149982006,-1.0069085398549953
1.3893338977724108,0.20086700149982006,-0.9284507803162904
1.3893338977724108,0.20086700149982006,0.4061716970842394
1.3893338977724108,0.20086700149982006,0.5113151700724766
1.3893338977724108,0.20086700149982006,-0.846409443948036
1.3893338977724108,0.20086700149982006,-0.8669928212750238
1.3893338977724108,-0.7333536909552563,0.6006860307400026
1.3893338977724108,-0.7333536909552563,-1.0069085398549953
1.3893338977724108,-0.7333536909552563,-0.9284507803162904
1.3893338977724108,-0.7333536909552563,0.4061716970842394
1.3893338977724108,-0.7333536909552563,0.5113151700724766
1.3893338977724108,-0.7333536909552563,-0.846409443948036
1.3893338977724108,-0.7333536909552563,-0.8669928212750238
1.3893338977724108,0.6006860307400026,-1.0069085398549953
1.3893338977724108,0.6006860307400026,-0.9284507803162904
1.3893338977724108,0.6006860307400026,0.4061716970842394
1.3893338977724108,0.6006860307400026,0.5113151700724766
1.3893338977724108,0.6006860307400026,-0.846409443948036
1.3893338977724108,0.6006860307400026,-0.8669928212750238
1.3893338977724108,-1.0069085398549953,-0.846409443948036
1.3893338977724108,-1.0069085398549953,-0.8669928212750238
1.3893338977724108,-1.0069085398549953,-0.9284507803162904
1.3893338977724108,-1.0069085398549953,0.4061716970842394
1.3893338977724108,-1.0069085398549953,0.5113151700724766
1.3893338977724108,-0.9284507803162904,-0.846409443948036
1.3893338977724108,-0.9284507803162904,-0.8669928212750238
1.3893338977724108,-0.9284507803162904,0.4061716970842394
1.3893338977724108,-0.9284507803162904,0.5113151700724766
1.3893338977724108,0.4061716970842394,-0.846409443948036
1.3893338977724108,0.4061716970842394,-0.8669928212750238
1.3893338977724108,0.4061716970842394,0.5113151700724766
1.3893338977724108,0.5113151700724766,-0.846409443948036
1.3893338977724108,0.5113151700724766,-0.8669928212750238
1.3893338977724108,-0.846409443948036,-0.8669928212750238
0.20086700149982006,-0.7333536909552563,0.6006860307400026
0.20086700149982006,-0.7333536909552563,-1.0069085398549953
0.20086700149982006,-0.7333536909552563,-0.9284507803162904
0.20086700149982006,-0.7333536909552563,0.4061716970842394
0.20086700149982006,-0.7333536909552563,0.5113151700724766
0.20086700149982006,-0.7333536909552563,-0.846409443948036
0.20086700149982006,-0.7333536909552563,-0.8669928212750238
0.20086700149982006,0.6006860307400026,-1.0069085398549953
0.20086700149982006,0.6006860307400026,-0.9284507803162904
0.20086700149982006,0.6006860307400026,0.4061716970842394
0.20086700149982006,0.6006860307400026,0.5113151700724766
0.20086700149982006,0.6006860307400026,-0.846409443948036
0.20086700149982006,0.6006860307400026,-0.8669928212750238
0.20086700149982006,-1.0069085398549953,-0.846409443948036
0.20086700149982006,-1.0069085398549953,-0.8669928212750238
0.20086700149982006,-1.0069085398549953,-0.9284507803162904
0.20086700149982006,-1.0069085398549953,0.4061716970842394
0.20086700149982006,-1.0069085398549953,0.5113151700724766
0.20086700149982006,-0.9284507803162904,-0.846409443948036
0.20086700149982006,-0.9284507803162904,-0.8669928212750238
0.20086700149982006,-0.9284507803162904,0.4061716970842394
0.20086700149982006,-0.9284507803162904,0.5113151700724766
0.20086700149982006,0.4061716970842394,-0.846409443948036
0.20086700149982006,0.4061716970842394,-0.8669928212750238
0.20086700149982006,0.4061716970842394,0.5113151700724766
0.20086700149982006,0.5113151700724766,-0.846409443948036
0.20086700149982006,0.5113151700724766,-0.8669928212750238
0.20086700149982006,-0.846409443948036,-0.8669928212750238
-0.7333536909552563,0.6006860307400026,-1.0069085398549953
-0.7333536909552563,0.6006860307400026,-0.9284507803162904
-0.7333536909552563,0.6006860307400026,0.4061716970842394
-0.7333536909552563,0.6006860307400026,0.5113151700724766
-0.7333536909552563,0.6006860307400026,-0.846409443948036
-0.7333536909552563,0.6006860307400026,-0.8669928212750238
-0.7333536909552563,-1.0069085398549953,-0.846409443948036
-0.7333536909552563,-1.0069085398549953,-0.8669928212750238
-0.7333536909552563,-1.0069085398549953,-0.9284507803162904
-0.7333536909552563,-1.0069085398549953,0.4061716970842394
-0.7333536909552563,-1.0069085398549953,0.5113151700724766
-0.7333536909552563,-0.9284507803162904,-0.846409443948036
-0.7333536909552563,-0.9284507803162904,-0.8669928212750238
-0.7333536909552563,-0.9284507803162904,0.4061716970842394
-0.7333536909552563,-0.9284507803162904,0.5113151700724766
-0.7333536909552563,0.4061716970842394,-0.846409443948036
-0.7333536909552563,0.4061716970842394,-0.8669928212750238
-0.7333536909552563,0.4061716970842394,0.5113151700724766
-0.7333536909552563,0.5113151700724766,-0.846409443948036
-0.7333536909552563,0.5113151700724766,-0.8669928212750238
-0.7333536909552563,-0.846409443948036,-0.8669928212750238
0.6006860307400026,-1.0069085398549953,-0.846409443948036
0.6006860307400026,-1.0069085398549953,-0.8669928212750238
0.6006860307400026,-1.0069085398549953,-0.9284507803162904
0.6006860307400026,-1.0069085398549953,0.4061716970842394
0.6006860307400026,-1.0069085398549953,0.5113151700724766
0.6006860307400026,-0.9284507803162904,-0.846409443948036
0.6006860307400026,-0.9284507803162904,-0.8669928212750238
0.6006860307400026,-0.9284507803162904,0.4061716970842394
0.6006860307400026,-0.9284507803162904,0.5113151700724766
0.6006860307400026,0.4061716970842394,-0.846409443948036
0.6006860307400026,0.4061716970842394,-0.8669928212750238
0.6006860307400026,0.4061716970842394,0.5113151700724766
0.6006860307400026,0.5113151700724766,-0.846409443948036
0.6006860307400026,0.5113151700724766,-0.8669928212750238
0.6006860307400026,-0.846409443948036,-0.8669928212750238
-1.0069085398549953,-0.846409443948036,-0.8669928212750238
-1.0069085398549953,-0.9284507803162904,-0.846409443948036
-1.0069085398549953,-0.9284507803162904,-0.8669928212750238
-1.0069085398549953,-0.9284507803162904,0.4061716970842394
-1.0069085398549953,-0.9284507803162904,0.5113151700724766
-1.0069085398549953,0.4061716970842394,-0.846409443948036
-1.0069085398549953,0.4061716970842394,-0.8669928212750238
-1.0069085398549953,0.4061716970842394,0.5113151700724766
-1.0069085398549953,0.5113151700724766,-0.846409443948036
-1.0069085398549953,0.5113151700724766,-0.8669928212750238
-0.9284507803162904,-0.846409443948036,-0.8669928212750238
-0.9284507803162904,0.4061716970842394,-0.846409443948036
-0.9284507803162904,0.4061716970842394,-0.8669928212750238
-0.9284507803162904,0.4061716970842394,0.5113151700724766
-0.9284507803162904,0.5113151700724766,-0.846409443948036
-0.9284507803162904,0.5113151700724766,-0.8669928212750238
0.4061716970842394,-0.846409443948036,-0.8669928212750238
0.4061716970842394,0.5113151700724766,-0.846409443948036
0.4061716970842394,0.5113151700724766,-0.8669928212750238
0.5113151700724766,-0.846409443948036,-0.8669928212750238
