0,1,2
-0.625710097524119,0.007556772309757811,1.1208096474525564
-0.625710097524119,0.007556772309757811,0.7196848058975643
-0.625710097524119,0.007556772309757811,0.6302725677696135
-0.625710097524119,0.007556772309757811,1.601424950667833
-0.625710097524119,0.007556772309757811,-0.9508756559649142
-0.625710097524119,0.007556772309757811,1.0201605135440144
-0.625710097524119,0.007556772309757811,0.49232995705886906
-0.625710097524119,0.007556772309757811,1.1256844159424426
-0.625710097524119,1.1208096474525564,0.7196848058975643
-0.625710097524119,1.1208096474525564,0.6302725677696135
-0.625710097524119,1.1208096474525564,1.601424950667833
-0.625710097524119,1.1208096474525564,-0.9508756559649142
-0.625710097524119,1.1208096474525564,1.0201605135440144
-0.625710097524119,1.1208096474525564,0.49232995705886906
-0.625710097524119,1.1208096474525564,1.1256844159424426
-0.625710097524119,0.7196848058975643,0.6302725677696135
-0.625710097524119,0.7196848058975643,1.601424950667833
-0.625710097524119,0.7196848058975643,-0.9508756559649142
-0.625710097524119,0.7196848058975643,1.0201605135440144
-0.625710097524119,0.7196848058975643,0.49232995705886906
-0.625710097524119,0.7196848058975643,1.1256844159424426
-0.625710097524119,0.6302725677696135,0.49232995705886906
-0.625710097524119,0.6302725677696135,1.1256844159424426
-0.625710097524119,0.6302725677696135,1.601424950667833
-0.625710097524119,0.6302725677696135,-0.9508756559649142
-0.625710097524119,0.6302725677696135,1.0201605135440144
-0.625710097524119,1.601424950667833,0.49232995705886906
-0.625710097524119,1.601424950667833,1.1256844159424426
-0.625710097524119,1.601424950667833,-0.9508756559649142
-0.625710097524119,1.601424950667833,1.0201605135440144
-0.625710097524119,-0.9508756559649142,0.49232995705886906
-0.625710097524119,-0.9508756559649142,1.1256844159424426
-0.625710097524119,-0.9508756559649142,1.0201605135440144
-0.625710097524119,1.0201605135440144,0.49232995705886906
-0.625710097524119,1.0201605135440144,1.1256844159424426
-0.625710097524119,0.49232995705886906,1.1256844159424426
0.007556772309757811,1.1208096474525564,0.7196848058975643
0.007556772309757811,1.1208096474525564,0.6302725677696135
0.007556772309757811,1.1208096474525564,1.601424950667833
0.007556772309757811,1.1208096474525564,-0.9508756559649142
0.007556772309757811,1.1208096474525564,1.0201605135440144
0.007556772309757811,1.1208096474525564,0.49232995705886906
0.007556772309757811,1.1208096474525564,1.1256844159424426
0.007556772309757811,0.7196848058975643,0.6302725677696135
0.007556772309757811,0.7196848058975643,1.601424950667833
0.007556772309757811,0.7196848058975643,-0.9508756559649142
0.007556772309757811,0.7196848058975643,1.0201605135440144
0.007556772309757811,0.7196848058975643,0.49232995705886906
0.007556772309757811,0.7196848058975643,1.1256844159424426
0.007556772309757811,0.6302725677696135,0.49232995705886906
0.007556772309757811,0.6302725677696135,1.1256844159424426
0.007556772309757811,0.6302725677696135,1.601424950667833
0.007556772309757811,0.6302725677696135,-0.9508756559649142
0.007556772309757811,0.6302725677696135,1.0201605135440144
0.007556772309757811,1.601424950667833,0.49232995705886906
0.007556772309757811,1.601424950667833,1.1256844159424426
0.007556772309757811,1.601424950667833,-0.9508756559649142
0.007556772309757811,1.601424950667833,1.0201605135440144
0.007556772309757811,-0.9508756559649142,0.49232995705886906
0.007556772309757811,-0.9508756559649142,1.1256844159424426
0.007556772309757811,-0.9508756559649142,1.0201605135440144
0.007556772309757811,1.0201605135440144,0.49232995705886906
0.007556772309757811,1.0201605135440144,1.1256844159424426
0.007556772309757811,0.49232995705886906,1.1256844159424426
1.1208096474525564,0.7196848058975643,0.6302725677696135
1.1208096474525564,0.7196848058975643,1.601424950667833
1.1208096474525564,0.7196848058975643,-0.9508756559649142
1.1208096474525564,0.7196848058975643,1.0201605135440144
1.1208096474525564,0.7196848058975643,0.49232995705886906
1.1208096474525564,0.7196848058975643,1.1256844159424426
1.1208096474525564,0.6302725677696135,0.49232995705886906
1.1208096474525564,0.6302725677696135,1.1256844159424426
1.1208096474525564,0.6302725677696135,1.601424950667833
1.1208096474525564,0.6302725677696135,-0.9508756559649142
1.1208096474525564,0.6302725677696135,1.0201605135440144
1.1208096474525564,1.601424950667833,0.49232995705886906
1.1208096474525564,1.601424950667833,1.1256844159424426
1.1208096474525564,1.601424950667833,-0.9508756559649142
1.1208096474525564,1.601424950667833,1.0201605135440144
1.1208096474525564,-0.9508756559649142,0.49232995705886906
1.1208096474525564,-0.9508756559649142,1.1256844159424426
1.1208096474525564,-0.9508756559649142,1.0201605135440144
1.1208096474525564,1.0201605135440144,0.49232995705886906
1.1208096474525564,1.0201605135440144,1.1256844159424426
1.1208096474525564,0.49232995705886906,1.1256844159424426
0.7196848058975643,0.6302725677696135,0.49232995705886906
0.7196848058975643,0.6302725677696135,1.1256844159424426
0.7196848058975643,0.6302725677696135,1.601424950667833
0.7196848058975643,0.6302725677696135,-0.9508756559649142
0.7196848058975643,0.6302725677696135,1.0201605135440144
0.7196848058975643,1.601424950667833,0.49232995705886906
0.7196848058975643,1.601424950667833,1.1256844159424426
0.7196848058975643,1.601424950667833,-0.9508756559649142
0.7196848058975643,1.601424950667833,1.0201605135440144
0.7196848058975643,-0.9508756559649142,0.49232995705886906
0.7196848058975643,-0.9508756559649142,1.1256844159424426
0.7196848058975643,-0.9508756559649142,1.0201605135440144
0.7196848058975643,1.0201605135440144,0.49232995705886906
0.7196848058975643,1.0201605135440144,1.1256844159424426
0.7196848058975643,0.49232995705886906,1.1256844159424426
0.6302725677696135,0.49232995705886906,1.1256844159424426
0.6302725677696135,1.601424950667833,0.49232995705886906
0.6302725677696135,1.601424950667833,1.1256844159424426
0.6302725677696135,1.601424950667833,-0.9508756559649142
0.6302725677696135,1.601424950667833,1.0201605135440144
0.6302725677696135,-0.9508756559649142,0.49232995705886906
0.6302725677696135,-0.9508756559649142,1.1256844159424426
0.6302725677696135,-0.9508756559649142,1.0201605135440144
0.6302725677696135,1.0201605135440144,0.49232995705886906
0.6302725677696135,1.0201605135440144,1.1256844159424426
1.601424950667833,0.49232995705886906,1.1256844159424426
1.601424950667833,-0.9508756559649142,0.49232995705886906
1.601424950667833,-0.9508756559649142,1.1256844159424426
1.601424950667833,-0.9508756559649142,1.0201605135440144
1.601424950667833,1.0201605135440144,0.49232995705886906
1.601424950667833,1.0201605135440144,1.1256844159424426
-0.9508756559649142,0.49232995705886906,1.1256844159424426
-0.9508756559649142,1.0201605135440144,0.49232995705886906
-0.9508756559649142,1.0201605135440144,1.1256844159424426
1.0201605135440144,0.49232995705886906,1.1256844159424426
