0,1,2
1.9134346976354188,0.00939980619292804,0.5237130533675004
1.9134346976354188,0.00939980619292804,0.2434646488841558
1.9134346976354188,0.00939980619292804,0.12321226057759901
1.9134346976354188,0.00939980619292804,-0.22948423668475507
1.9134346976354188,0.00939980619292804,-0.3806217993252436
1.9134346976354188,0.00939980619292804,1.008368401713304
1.9134346976354188,0.00939980619292804,0.4528498479370239
1.9134346976354188,0.00939980619292804,-0.6950623858263171
1.9134346976354188,0.5237130533675004,0.2434646488841558
1.9134346976354188,0.5237130533675004,0.12321226057759901
1.9134346976354188,0.5237130533675004,-0.22948423668475507
1.9134346976354188,0.5237130533675004,-0.3806217993252436
1.9134346976354188,0.5237130533675004,1.008368401713304
1.9134346976354188,0.5237130533675004,0.4528498479370239
1.9134346976354188,0.5237130533675004,-0.6950623858263171
1.9134346976354188,0.2434646488841558,0.12321226057759901
1.9134346976354188,0.2434646488841558,-0.22948423668475507
1.9134346976354188,0.2434646488841558,-0.3806217993252436
1.9134346976354188,0.2434646488841558,1.008368401713304
1.9134346976354188,0.2434646488841558,0.4528498479370239
1.9134346976354188,0.2434646488841558,-0.6950623858263171
1.9134346976354188,0.12321226057759901,0.4528498479370239
1.9134346976354188,0.12321226057759901,-0.6950623858263171
1.9134346976354188,0.12321226057759901,-0.22948423668475507
1.9134346976354188,0.12321226057759901,-0.3806217993252436
1.9134346976354188,0.12321226057759901,1.008368401713304
1.9134346976354188,-0.22948423668475507,0.4528498479370239
1.9134346976354188,-0.22948423668475507,-0.6950623858263171
1.9134346976354188,-0.22948423668475507,-0.3806217993252436
1.9134346976354188,-0.22948423668475507,1.008368401713304
1.9134346976354188,-0.3806217993252436,0.4528498479370239
1.9134346976354188,-0.3806217993252436,-0.6950623858263171
1.9134346976354188,-0.3806217993252436,1.008368401713304
1.9134346976354188,1.008368401713304,0.4528498479370239
1.9134346976354188,1.008368401713304,-0.6950623858263171
1.9134346976354188,0.4528498479370239,-0.6950623858263171
0.00939980619292804,0.5237130533675004,0.2434646488841558
0.00939980619292804,0.5237130533675004,0.12321226057759901
0.00939980619292804,0.5237130533675004,-0.22948423668475507
0.00939980619292804,0.5237130533675004,-0.3806217993252436
0.00939980619292804,0.5237130533675004,1.008368401713304
0.00939980619292804,0.5237130533675004,0.4528498479370239
0.00939980619292804,0.5237130533675004,-0.6950623858263171
0.00939980619292804,0.2434646488841558,0.12321226057759901
0.00939980619292804,0.2434646488841558,-0.22948423668475507
0.00939980619292804,0.2434646488841558,-0.3806217993252436
0.00939980619292804,0.2434646488841558,1.008368401713304
0.00939980619292804,0.2434646488841558,0.4528498479370239
0.00939980619292804,0.2434646488841558,-0.6950623858263171
0.00939980619292804,0.12321226057759901,0.4528498479370239
0.00939980619292804,0.12321226057759901,-0.6950623858263171
0.00939980619292804,0.12321226057759901,-0.22948423668475507
0.00939980619292804,0.12321226057759901,-0.3806217993252436
0.00939980619292804,0.12321226057759901,1.008368401713304
0.00939980619292804,-0.22948423668475507,0.4528498479370239
0.00939980619292804,-0.22948423668475507,-0.6950623858263171
0.00939980619292804,-0.22948423668475507,-0.3806217993252436
0.00939980619292804,-0.22948423668475507,1.008368401713304
0.00939980619292804,-0.3806217993252436,0.4528498479370239
0.00939980619292804,-0.3806217993252436,-0.6950623858263171
0.00939980619292804,-0.3806217993252436,1.008368401713304
0.00939980619292804,1.008368401713304,0.4528498479370239
0.00939980619292804,1.008368401713304,-0.6950623858263171
0.00939980619292804,0.4528498479370239,-0.6950623858263171
0.5237130533675004,0.2434646488841558,0.12321226057759901
0.5237130533675004,0.2434646488841558,-0.22948423668475507
0.5237130533675004,0.2434646488841558,-0.3806217993252436
0.5237130533675004,0.2434646488841558,1.008368401713304
0.5237130533675004,0.2434646488841558,0.4528498479370239
0.5237130533675004,0.2434646488841558,-0.6950623858263171
0.5237130533675004,0.12321226057759901,0.4528498479370239
0.5237130533675004,0.12321226057759901,-0.6950623858263171
0.5237130533675004,0.12321226057759901,-0.22948423668475507
0.5237130533675004,0.12321226057759901,-0.3806217993252436
0.5237130533675004,0.12321226057759901,1.008368401713304
0.5237130533675004,-0.22948423668475507,0.4528498479370239
0.5237130533675004,-0.22948423668475507,-0.6950623858263171
0.5237130533675004,-0.22948423668475507,-0.3806217993252436
0.5237130533675004,-0.22948423668475507,1.008368401713304
0.5237130533675004,-0.3806217993252436,0.4528498479370239
0.5237130533675004,-0.3806217993252436,-0.6950623858263171
0.5237130533675004,-0.3806217993252436,1.008368401713304
0.5237130533675004,1.008368401713304,0.4528498479370239
0.5237130533675004,1.008368401713304,-0.6950623858263171
0.5237130533675004,0.4528498479370239,-0.6950623858263171
0.2434646488841558,0.12321226057759901,0.4528498479370239
0.2434646488841558,0.12321226057759901,-0.6950623858263171
0.2434646488841558,0.12321226057759901,-0.22948423668475507
0.2434646488841558,0.12321226057759901,-0.3806217993252436
0.2434646488841558,0.12321226057759901,1.008368401713304
0.2434646488841558,-0.22948423668475507,0.4528498479370239
0.2434646488841558,-0.22948423668475507,-0.6950623858263171
0.2434646488841558,-0.22948423668475507,-0.3806217993252436
0.2434646488841558,-0.22948423668475507,1.008368401713304
0.2434646488841558,-0.3806217993252436,0.4528498479370239
0.2434646488841558,-0.3806217993252436,-0.6950623858263171
0.2434646488841558,-0.3806217993252436,1.008368401713304
0.2434646488841558,1.008368401713304,0.4528498479370239
0.2434646488841558,1.008368401713304,-0.6950623858263171
0.2434646488841558,0.4528498479370239,-0.6950623858263171
0.12321226057759901,0.4528498479370239,-0.6950623858263171
0.12321226057759901,-0.22948423668475507,0.4528498479370239
0.12321226057759901,-0.22948423668475507,-0.6950623858263171
0.12321226057759901,-0.22948423668475507,-0.3806217993252436
0.12321226057759901,-0.22948423668475507,1.008368401713304
0.12321226057759901,-0.3806217993252436,0.4528498479370239
0.12321226057759901,-0.3806217993252436,-0.6950623858263171
0.12321226057759901,-0.3806217993252436,1.008368401713304
0.12321226057759901,1.008368401713304,0.4528498479370239
0.12321226057759901,1.008368401713304,-0.6950623858263171
-0.22948423668475507,0.4528498479370239,-0.6950623858263171
-0.22948423668475507,-0.3806217993252436,0.4528498479370239
-0.22948423668475507,-0.3806217993252436,-0.6950623858263171
-0.22948423668475507,-0.3806217993252436,1.008368401713304
-0.22948423668475507,1.008368401713304,0.4528498479370239
-0.22948423668475507,1.008368401713304,-0.6950623858263171
-0.3806217993252436,0.4528498479370239,-0.6950623858263171
-0.3806217993252436,1.008368401713304,0.4528498479370239
-0.3806217993252436,1.008368401713304,-0.6950623858263171
1.008368401713304,0.4528498479370239,-0.6950623858263171
