0,1,2
0.5494218464693476,1.0774605758935625,1.858801408978113
0.5494218464693476,1.0774605758935625,0.31816220051328015
0.5494218464693476,1.0774605758935625,-0.42131195662990023
0.5494218464693476,1.0774605758935625,1.0091424251671395
0.5494218464693476,1.0774605758935625,0.2977061506444263
0.5494218464693476,1.0774605758935625,-0.463194170829577
0.5494218464693476,1.0774605758935625,-1.4154435026126604
0.5494218464693476,1.0774605758935625,0.21395303473159322
0.5494218464693476,1.858801408978113,0.31816220051328015
0.5494218464693476,1.858801408978113,-0.42131195662990023
0.5494218464693476,1.858801408978113,1.0091424251671395
0.5494218464693476,1.858801408978113,0.2977061506444263
0.5494218464693476,1.858801408978113,-0.463194170829577
0.5494218464693476,1.858801408978113,-1.4154435026126604
0.5494218464693476,1.858801408978113,0.21395303473159322
0.5494218464693476,0.31816220051328015,-0.42131195662990023
0.5494218464693476,0.31816220051328015,1.0091424251671395
0.5494218464693476,0.31816220051328015,0.2977061506444263
0.5494218464693476,0.31816220051328015,-0.463194170829577
0.5494218464693476,0.31816220051328015,-1.4154435026126604
0.5494218464693476,0.31816220051328015,0.21395303473159322
0.5494218464693476,-0.42131195662990023,-1.4154435026126604
0.5494218464693476,-0.42131195662990023,0.21395303473159322
0.5494218464693476,-0.42131195662990023,1.0091424251671395
0.5494218464693476,-0.42131195662990023,0.2977061506444263
0.5494218464693476,-0.42131195662990023,-0.463194170829577
0.5494218464693476,1.0091424251671395,-1.4154435026126604
0.5494218464693476,1.0091424251671395,0.21395303473159322
0.5494218464693476,1.0091424251671395,0.2977061506444263
0.5494218464693476,1.0091424251671395,-0.463194170829577
0.5494218464693476,0.2977061506444263,-1.4154435026126604
0.5494218464693476,0.2977061506444263,0.21395303473159322
0.5494218464693476,0.2977061506444263,-0.463194170829577
0.5494218464693476,-0.463194170829577,-1.4154435026126604
0.5494218464693476,-0.463194170829577,0.21395303473159322
0.5494218464693476,-1.4154435026126604,0.21395303473159322
1.0774605758935625,1.858801408978113,0.31816220051328015
1.0774605758935625,1.858801408978113,-0.42131195662990023
1.0774605758935625,1.858801408978113,1.0091424251671395
1.0774605758935625,1.858801408978113,0.2977061506444263
1.0774605758935625,1.858801408978113,-0.463194170829577
1.0774605758935625,1.858801408978113,-1.4154435026126604
1.0774605758935625,1.858801408978113,0.21395303473159322
1.0774605758935625,0.31816220051328015,-0.42131195662990023
1.0774605758935625,0.31816220051328015,1.0091424251671395
1.0774605758935625,0.31816220051328015,0.2977061506444263
1.0774605758935625,0.31816220051328015,-0.463194170829577
1.0774605758935625,0.31816220051328015,-1.4154435026126604
1.0774605758935625,0.31816220051328015,0.21395303473159322
1.0774605758935625,-0.42131195662990023,-1.4154435026126604
1.0774605758935625,-0.42131195662990023,0.21395303473159322
1.0774605758935625,-0.42131195662990023,1.0091424251671395
1.0774605758935625,-0.42131195662990023,0.2977061506444263
1.0774605758935625,-0.42131195662990023,-0.463194170829577
1.0774605758935625,1.0091424251671395,-1.4154435026126604
1.0774605758935625,1.0091424251671395,0.21395303473159322
1.0774605758935625,1.0091424251671395,0.2977061506444263
1.0774605758935625,1.0091424251671395,-0.463194170829577
1.0774605758935625,0.2977061506444263,-1.4154435026126604
1.0774605758935625,0.2977061506444263,0.21395303473159322
1.0774605758935625,0.2977061506444263,-0.463194170829577
1.0774605758935625,-0.463194170829577,-1.4154435026126604
1.0774605758935625,-0.463194170829577,0.21395303473159322
1.0774605758935625,-1.4154435026126604,0.21395303473159322
1.858801408978113,0.31816220051328015,-0.42131195662990023
1.858801408978113,0.31816220051328015,1.0091424251671395
1.858801408978113,0.31816220051328015,0.2977061506444263
1.858801408978113,0.31816220051328015,-0.463194170829577
1.858801408978113,0.31816220051328015,-1.4154435026126604
1.858801408978113,0.31816220051328015,0.21395303473159322
1.858801408978113,-0.42131195662990023,-1.4154435026126604
1.858801408978113,-0.42131195662990023,0.21395303473159322
1.858801408978113,-0.42131195662990023,1.0091424251671395
1.858801408978113,-0.42131195662990023,0.2977061506444263
1.858801408978113,-0.42131195662990023,-0.463194170829577
1.858801408978113,1.0091424251671395,-1.4154435026126604
1.858801408978113,1.0091424251671395,0.21395303473159322
1.858801408978113,1.0091424251671395,0.2977061506444263
1.858801408978113,1.0091424251671395,-0.463194170829577
1.858801408978113,0.2977061506444263,-1.4154435026126604
1.858801408978113,0.2977061506444263,0.21395303473159322
1.858801408978113,0.2977061506444263,-0.463194170829577
1.858801408978113,-0.463194170829577,-1.4154435026126604
1.858801408978113,-0.463194170829577,0.21395303473159322
1.858801408978113,-1.4154435026126604,0.21395303473159322
0.31816220051328015,-0.42131195662990023,-1.4154435026126604
0.31816220051328015,-0.42131195662990023,0.21395303473159322
0.31816220051328015,-0.42131195662990023,1.0091424251671395
0.31816220051328015,-0.42131195662990023,0.2977061506444263
0.31816220051328015,-0.42131195662990023,-0.463194170829577
0.31816220051328015,1.0091424251671395,-1.4154435026126604
0.31816220051328015,1.0091424251671395,0.21395303473159322
0.31816220051328015,1.0091424251671395,0.2977061506444263
0.31816220051328015,1.0091424251671395,-0.463194170829577
0.31816220051328015,0.2977061506444263,-1.4154435026126604
0.31816220051328015,0.2977061506444263,0.21395303473159322
0.31816220051328015,0.2977061506444263,-0.463194170829577
0.31816220051328015,-0.463194170829577,-1.4154435026126604
0.31816220051328015,-0.463194170829577,0.21395303473159322
0.31816220051328015,-1.4154435026126604,0.21395303473159322
-0.42131195662990023,-1.4154435026126604,0.21395303473159322
-0.42131195662990023,1.0091424251671395,-1.4154435026126604
-0.42131195662990023,1.0091424251671395,0.21395303473159322
-0.42131195662990023,1.0091424251671395,0.2977061506444263
-0.42131195662990023,1.0091424251671395,-0.463194170829577
-0.42131195662990023,0.2977061506444263,-1.4154435026126604
-0.42131195662990023,0.2977061506444263,0.21395303473159322
-0.42131195662990023,0.2977061506444263,-0.463194170829577
-0.42131195662990023,-0.463194170829577,-1.4154435026126604
-0.42131195662990023,-0.463194170829577,0.21395303473159322
1.0091424251671395,-1.4154435026126604,0.21395303473159322
1.0091424251671395,0.2977061506444263,-1.4154435026126604
1.0091424251671395,0.2977061506444263,0.21395303473159322
1.0091424251671395,0.2977061506444263,-0.463194170829577
1.0091424251671395,-0.463194170829577,-1.4154435026126604
1.0091424251671395,-0.463194170829577,0.21395303473159322
0.2977061506444263,-1.4154435026126604,0.21395303473159322
0.2977061506444263,-0.463194170829577,-1.4154435026126604
0.2977061506444263,-0.463194170829577,0.21395303473159322
-0.463194170829577,-1.4154435026126604,0.21395303473159322
