0,1,2
0.4826908661148757,-0.8007267119635973,-0.8857002012046316
0.4826908661148757,-0.8007267119635973,1.0194234298403977
0.4826908661148757,-0.8007267119635973,0.881409631548664
0.4826908661148757,-0.8007267119635973,-1.0517904681783699
0.4826908661148757,-0.8007267119635973,0.6513078932894973
0.4826908661148757,-0.8007267119635973,-0.025186828372914832
0.4826908661148757,-0.8007267119635973,0.3700225411722384
0.4826908661148757,-0.8007267119635973,-0.8446694437707689
0.4826908661148757,-0.8857002012046316,1.0194234298403977
0.4826908661148757,-0.8857002012046316,0.881409631548664
0.4826908661148757,-0.8857002012046316,-1.0517904681783699
0.4826908661148757,-0.8857002012046316,0.6513078932894973
0.4826908661148757,-0.8857002012046316,-0.025186828372914832
0.4826908661148757,-0.8857002012046316,0.3700225411722384
0.4826908661148757,-0.8857002012046316,-0.8446694437707689
0.4826908661148757,1.0194234298403977,0.881409631548664
0.4826908661148757,1.0194234298403977,-1.0517904681783699
0.4826908661148757,1.0194234298403977,0.6513078932894973
0.4826908661148757,1.0194234298403977,-0.025186828372914832
0.4826908661148757,1.0194234298403977,0.3700225411722384
0.4826908661148757,1.0194234298403977,-0.8446694437707689
0.4826908661148757,0.881409631548664,0.3700225411722384
0.4826908661148757,0.881409631548664,-0.8446694437707689
0.4826908661148757,0.881409631548664,-1.0517904681783699
0.4826908661148757,0.881409631548664,0.6513078932894973
0.4826908661148757,0.881409631548664,-0.025186828372914832
0.4826908661148757,-1.0517904681783699,0.3700225411722384
0.4826908661148757,-1.0517904681783699,-0.8446694437707689
0.4826908661148757,-1.0517904681783699,0.6513078932894973
0.4826908661148757,-1.0517904681783699,-0.025186828372914832
0.4826908661148757,0.6513078932894973,0.3700225411722384
0.4826908661148757,0.6513078932894973,-0.8446694437707689
0.4826908661148757,0.6513078932894973,-0.025186828372914832
0.4826908661148757,-0.025186828372914832,0.3700225411722384
0.4826908661148757,-0.025186828372914832,-0.8446694437707689
0.4826908661148757,0.3700225411722384,-0.8446694437707689
-0.8007267119635973,-0.8857002012046316,1.0194234298403977
-0.8007267119635973,-0.8857002012046316,0.881409631548664
-0.8007267119635973,-0.8857002012046316,-1.0517904681783699
-0.8007267119635973,-0.8857002012046316,0.6513078932894973
-0.8007267119635973,-0.8857002012046316,-0.025186828372914832
-0.8007267119635973,-0.8857002012046316,0.3700225411722384
-0.8007267119635973,-0.8857002012046316,-0.8446694437707689
-0.8007267119635973,1.0194234298403977,0.881409631548664
-0.8007267119635973,1.0194234298403977,-1.0517904681783699
-0.8007267119635973,1.0194234298403977,0.6513078932894973
-0.8007267119635973,1.0194234298403977,-0.025186828372914832
-0.8007267119635973,1.0194234298403977,0.3700225411722384
-0.8007267119635973,1.0194234298403977,-0.8446694437707689
-0.8007267119635973,0.881409631548664,0.3700225411722384
-0.8007267119635973,0.881409631548664,-0.8446694437707689
-0.8007267119635973,0.881409631548664,-1.0517904681783699
-0.8007267119635973,0.881409631548664,0.6513078932894973
-0.8007267119635973,0.881409631548664,-0.025186828372914832
-0.8007267119635973,-1.0517904681783699,0.3700225411722384
-0.8007267119635973,-1.0517904681783699,-0.8446694437707689
-0.8007267119635973,-1.0517904681783699,0.6513078932894973
-0.8007267119635973,-1.0517904681783699,-0.025186828372914832
-0.8007267119635973,0.6513078932894973,0.3700225411722384
-0.8007267119635973,0.6513078932894973,-0.8446694437707689
-0.8007267119635973,0.6513078932894973,-0.025186828372914832
-0.8007267119635973,-0.025186828372914832,0.3700225411722384
-0.8007267119635973,-0.025186828372914832,-0.8446694437707689
-0.8007267119635973,0.3700225411722384,-0.8446694437707689
-0.8857002012046316,1.0194234298403977,0.881409631548664
-0.8857002012046316,1.0194234298403977,-1.0517904681783699
-0.8857002012046316,1.0194234298403977,0.6513078932894973
-0.8857002012046316,1.0194234298403977,-0.025186828372914832
-0.8857002012046316,1.0194234298403977,0.3700225411722384
-0.8857002012046316,1.0194234298403977,-0.8446694437707689
-0.8857002012046316,0.881409631548664,0.3700225411722384
-0.8857002012046316,0.881409631548664,-0.8446694437707689
-0.8857002012046316,0.881409631548664,-1.0517904681783699
-0.8857002012046316,0.881409631548664,0.6513078932894973
-0.8857002012046316,0.881409631548664,-0.025186828372914832
-0.8857002012046316,-1.0517904681783699,0.3700225411722384
-0.8857002012046316,-1.0517904681783699,-0.8446694437707689
-0.8857002012046316,-1.0517904681783699,0.6513078932894973
-0.8857002012046316,-1.0517904681783699,-0.025186828372914832
-0.8857002012046316,0.6513078932894973,0.3700225411722384
-0.8857002012046316,0.6513078932894973,-0.8446694437707689
-0.8857002012046316,0.6513078932894973,-0.025186828372914832
-0.8857002012046316,-0.025186828372914832,0.3700225411722384
-0.8857002012046316,-0.025186828372914832,-0.8446694437707689
-0.8857002012046316,0.3700225411722384,-0.8446694437707689
1.0194234298403977,0.881409631548664,0.3700225411722384
1.0194234298403977,0.881409631548664,-0.8446694437707689
1.0194234298403977,0.881409631548664,-1.0517904681783699
1.0194234298403977,0.881409631548664,0.6513078932894973
1.0194234298403977,0.881409631548664,-0.025186828372914832
1.0194234298403977,-1.0517904681783699,0.3700225411722384
1.0194234298403977,-1.0517904681783699,-0.8446694437707689
1.0194234298403977,-1.0517904681783699,0.6513078932894973
1.0194234298403977,-1.0517904681783699,-0.025186828372914832
1.0194234298403977,0.6513078932894973,0.3700225411722384
1.0194234298403977,0.6513078932894973,-0.8446694437707689
1.0194234298403977,0.6513078932894973,-0.025186828372914832
1.0194234298403977,-0.025186828372914832,0.3700225411722384
1.0194234298403977,-0.025186828372914832,-0.8446694437707689
1.0194234298403977,0.3700225411722384,-0.8446694437707689
0.881409631548664,0.3700225411722384,-0.8446694437707689
0.881409631548664,-1.0517904681783699,0.3700225411722384
0.881409631548664,-1.0517904681783699,-0.8446694437707689
0.881409631548664,-1.0517904681783699,0.6513078932894973
0.881409631548664,-1.0517904681783699,-0.025186828372914832
0.881409631548664,0.6513078932894973,0.3700225411722384
0.881409631548664,0.6513078932894973,-0.8446694437707689
0.881409631548664,0.6513078932894973,-0.025186828372914832
0.881409631548664,-0.025186828372914832,0.3700225411722384
0.881409631548664,-0.025186828372914832,-0.8446694437707689
-1.0517904681783699,0.3700225411722384,-0.8446694437707689
-1.0517904681783699,0.6513078932894973,0.3700225411722384
-1.0517904681783699,0.6513078932894973,-0.8446694437707689
-1.0517904681783699,0.6513078932894973,-0.025186828372914832
-1.0517904681783699,-0.025186828372914832,0.3700225411722384
-1.0517904681783699,-0.025186828372914832,-0.8446694437707689
0.6513078932894973,0.3700225411722384,-0.8446694437707689
0.6513078932894973,-0.025186828372914832,0.3700225411722384
0.6513078932894973,-0.025186828372914832,-0.8446694437707689
-0.025186828372914832,0.3700225411722384,-0.8446694437707689
