0,1,2
-1.0928661513061362,2.110143094593639,0.6477477148977978
-1.0928661513061362,2.110143094593639,-0.10784699604979914
-1.0928661513061362,2.110143094593639,-0.2748446490163688
-1.0928661513061362,2.110143094593639,-1.1765067109920377
-1.0928661513061362,2.110143094593639,-1.4866417082281265
-1.0928661513061362,2.110143094593639,-0.08293713625787509
-1.0928661513061362,2.110143094593639,1.3987692331174335
-1.0928661513061362,2.110143094593639,1.3000650985174103
-1.0928661513061362,0.6477477148977978,-0.10784699604979914
-1.0928661513061362,0.6477477148977978,-0.2748446490163688
-1.0928661513061362,0.6477477148977978,-1.1765067109920377
-1.0928661513061362,0.6477477148977978,-1.4866417082281265
-1.0928661513061362,0.6477477148977978,-0.08293713625787509
-1.0928661513061362,0.6477477148977978,1.3987692331174335
-1.0928661513061362,0.6477477148977978,1.3000650985174103
-1.0928661513061362,-0.10784699604979914,-0.2748446490163688
-1.0928661513061362,-0.10784699604979914,-1.1765067109920377
-1.0928661513061362,-0.10784699604979914,-1.4866417082281265
-1.0928661513061362,-0.10784699604979914,-0.08293713625787509
-1.0928661513061362,-0.10784699604979914,1.3987692331174335
-1.0928661513061362,-0.10784699604979914,1.3000650985174103
-1.0928661513061362,-0.2748446490163688,1.3987692331174335
-1.0928661513061362,-0.2748446490163688,1.3000650985174103
-1.0928661513061362,-0.2748446490163688,-1.1765067109920377
-1.0928661513061362,-0.2748446490163688,-1.4866417082281265
-1.0928661513061362,-0.2748446490163688,-0.08293713625787509
-1.0928661513061362,-1.1765067109920377,1.3987692331174335
-1.0928661513061362,-1.1765067109920377,1.3000650985174103
-1.0928661513061362,-1.1765067109920377,-1.4866417082281265
-1.0928661513061362,-1.1765067109920377,-0.08293713625787509
-1.0928661513061362,-1.4866417082281265,1.3987692331174335
-1.0928661513061362,-1.4866417082281265,1.3000650985174103
-1.0928661513061362,-1.4866417082281265,-0.08293713625787509
-1.0928661513061362,-0.08293713625787509,1.3987692331174335
-1.0928661513061362,-0.08293713625787509,1.3000650985174103
-1.0928661513061362,1.3987692331174335,1.3000650985174103
2.110143094593639,0.6477477148977978,-0.10784699604979914
2.110143094593639,0.6477477148977978,-0.2748446490163688
2.110143094593639,0.6477477148977978,-1.1765067109920377
2.110143094593639,0.6477477148977978,-1.4866417082281265
2.110143094593639,0.6477477148977978,-0.08293713625787509
2.110143094593639,0.6477477148977978,1.3987692331174335
2.110143094593639,0.6477477148977978,1.3000650985174103
2.110143094593639,-0.10784699604979914,-0.2748446490163688
2.110143094593639,-0.10784699604979914,-1.1765067109920377
2.110143094593639,-0.10784699604979914,-1.4866417082281265
2.110143094593639,-0.10784699604979914,-0.08293713625787509
2.110143094593639,-0.10784699604979914,1.3987692331174335
2.110143094593639,-0.10784699604979914,1.3000650985174103
2.110143094593639,-0.2748446490163688,1.3987692331174335
2.110143094593639,-0.2748446490163688,1.3000650985174103
2.110143094593639,-0.2748446490163688,-1.1765067109920377
2.110143094593639,-0.2748446490163688,-1.4866417082281265
2.110143094593639,-0.2748446490163688,-0.08293713625787509
2.110143094593639,-1.1765067109920377,1.3987692331174335
2.110143094593639,-1.1765067109920377,1.3000650985174103
2.110143094593639,-1.1765067109920377,-1.4866417082281265
2.110143094593639,-1.1765067109920377,-0.08293713625787509
2.110143094593639,-1.4866417082281265,1.3987692331174335
2.110143094593639,-1.4866417082281265,1.3000650985174103
2.110143094593639,-1.4866417082281265,-0.08293713625787509
2.110143094593639,-0.08293713625787509,1.3987692331174335
2.110143094593639,-0.08293713625787509,1.3000650985174103
2.110143094593639,1.3987692331174335,1.3000650985174103
0.6477477148977978,-0.10784699604979914,-0.2748446490163688
0.6477477148977978,-0.10784699604979914,-1.1765067109920377
0.6477477148977978,-0.10784699604979914,-1.4866417082281265
0.6477477148977978,-0.10784699604979914,-0.08293713625787509
0.6477477148977978,-0.10784699604979914,1.3987692331174335
0.6477477148977978,-0.10784699604979914,1.3000650985174103
0.6477477148977978,-0.2748446490163688,1.3987692331174335
0.6477477148977978,-0.2748446490163688,1.3000650985174103
0.6477477148977978,-0.2748446490163688,-1.1765067109920377
0.6477477148977978,-0.2748446490163688,-1.4866417082281265
0.6477477148977978,-0.2748446490163688,-0.08293713625787509
0.6477477148977978,-1.1765067109920377,1.3987692331174335
0.6477477148977978,-1.1765067109920377,1.3000650985174103
0.6477477148977978,-1.1765067109920377,-1.4866417082281265
0.6477477148977978,-1.1765067109920377,-0.08293713625787509
0.6477477148977978,-1.4866417082281265,1.3987692331174335
0.6477477148977978,-1.4866417082281265,1.3000650985174103
0.6477477148977978,-1.4866417082281265,-0.08293713625787509
0.6477477148977978,-0.08293713625787509,1.3987692331174335
0.6477477148977978,-0.08293713625787509,1.3000650985174103
0.6477477148977978,1.3987692331174335,1.3000650985174103
-0.10784699604979914,-0.2748446490163688,1.3987692331174335
-0.10784699604979914,-0.2748446490163688,1.3000650985174103
-0.10784699604979914,-0.2748446490163688,-1.1765067109920377
-0.10784699604979914,-0.2748446490163688,-1.4866417082281265
-0.10784699604979914,-0.2748446490163688,-0.08293713625787509
-0.10784699604979914,-1.1765067109920377,1.3987692331174335
-0.10784699604979914,-1.1765067109920377,1.3000650985174103
-0.10784699604979914,-1.1765067109920377,-1.4866417082281265
-0.10784699604979914,-1.1765067109920377,-0.08293713625787509
-0.10784699604979914,-1.4866417082281265,1.3987692331174335
-0.10784699604979914,-1.4866417082281265,1.3000650985174103
-0.10784699604979914,-1.4866417082281265,-0.08293713625787509
-0.10784699604979914,-0.08293713625787509,1.3987692331174335
-0.10784699604979914,-0.08293713625787509,1.3000650985174103
-0.10784699604979914,1.3987692331174335,1.3000650985174103
-0.2748446490163688,1.3987692331174335,1.3000650985174103
-0.2748446490163688,-1.1765067109920377,1.3987692331174335
-0.2748446490163688,-1.1765067109920377,1.3000650985174103
-0.2748446490163688,-1.1765067109920377,-1.4866417082281265
-0.2748446490163688,-1.1765067109920377,-0.08293713625787509
-0.2748446490163688,-1.4866417082281265,1.3987692331174335
-0.2748446490163688,-1.4866417082281265,1.3000650985174103
-0.2748446490163688,-1.4866417082281265,-0.08293713625787509
-0.2748446490163688,-0.08293713625787509,1.3987692331174335
-0.2748446490163688,-0.08293713625787509,1.3000650985174103
-1.1765067109920377,1.3987692331174335,1.3000650985174103
-1.1765067109920377,-1.4866417082281265,1.3987692331174335
-1.1765067109920377,-1.4866417082281265,1.3000650985174103
-1.1765067109920377,-1.4866417082281265,-0.08293713625787509
-1.1765067109920377,-0.08293713625787509,1.3987692331174335
-1.1765067109920377,-0.08293713625787509,1.3000650985174103
-1.4866417082281265,1.3987692331174335,1.3000650985174103
-1.4866417082281265,-0.08293713625787509,1.3987692331174335
-1.4866417082281265,-0.08293713625787509,1.3000650985174103
-0.08293713625787509,1.3987692331174335,1.3000650985174103
