0,1,2
-0.8738701763743412,-0.04045292130433395,1.4930330413881339
-0.8738701763743412,-0.04045292130433395,-0.2991428026717152
-0.8738701763743412,-0.04045292130433395,-1.1639526647470972
-0.8738701763743412,-0.04045292130433395,0.4090901374221617
-0.8738701763743412,-0.04045292130433395,0.47297638784311685
-0.8738701763743412,-0.04045292130433395,-0.6519720843284539
-0.8738701763743412,-0.04045292130433395,-0.41315329915734744
-0.8738701763743412,-0.04045292130433395,-1.4388048958328103
-0.8738701763743412,1.4930330413881339,-0.2991428026717152
-0.8738701763743412,1.4930330413881339,-1.1639526647470972
-0.8738701763743412,1.4930330413881339,0.4090901374221617
-0.8738701763743412,1.4930330413881339,0.47297638784311685
-0.8738701763743412,1.4930330413881339,-0.6519720843284539
-0.8738701763743412,1.4930330413881339,-0.41315329915734744
-0.8738701763743412,1.4930330413881339,-1.4388048958328103
-0.8738701763743412,-0.2991428026717152,-1.1639526647470972
-0.8738701763743412,-0.2991428026717152,0.4090901374221617
-0.8738701763743412,-0.2991428026717152,0.47297638784311685
-0.8738701763743412,-0.2991428026717152,-0.6519720843284539
-0.8738701763743412,-0.2991428026717152,-0.41315329915734744
-0.8738701763743412,-0.2991428026717152,-1.4388048958328103
-0.8738701763743412,-1.1639526647470972,-0.41315329915734744
-0.8738701763743412,-1.1639526647470972,-1.4388048958328103
-0.8738701763743412,-1.1639526647470972,0.4090901374221617
-0.8738701763743412,-1.1639526647470972,0.47297638784311685
-0.8738701763743412,-1.1639526647470972,-0.6519720843284539
-0.8738701763743412,0.4090901374221617,-0.41315329915734744
-0.8738701763743412,0.4090901374221617,-1.4388048958328103
-0.8738701763743412,0.4090901374221617,0.47297638784311685
-0.8738701763743412,0.4090901374221617,-0.6519720843284539
-0.8738701763743412,0.47297638784311685,-0.41315329915734744
-0.8738701763743412,0.47297638784311685,-1.4388048958328103
-0.8738701763743412,0.47297638784311685,-0.6519720843284539
-0.8738701763743412,-0.6519720843284539,-0.41315329915734744
-0.8738701763743412,-0.6519720843284539,-1.4388048958328103
-0.8738701763743412,-0.41315329915734744,-1.4388048958328103
-0.04045292130433395,1.4930330413881339,-0.2991428026717152
-0.04045292130433395,1.4930330413881339,-1.1639526647470972
-0.04045292130433395,1.4930330413881339,0.4090901374221617
-0.04045292130433395,1.4930330413881339,0.47297638784311685
-0.04045292130433395,1.4930330413881339,-0.6519720843284539
-0.04045292130433395,1.4930330413881339,-0.41315329915734744
-0.04045292130433395,1.4930330413881339,-1.4388048958328103
-0.04045292130433395,-0.2991428026717152,-1.1639526647470972
-0.04045292130433395,-0.2991428026717152,0.4090901374221617
-0.04045292130433395,-0.2991428026717152,0.47297638784311685
-0.04045292130433395,-0.2991428026717152,-0.6519720843284539
-0.04045292130433395,-0.2991428026717152,-0.41315329915734744
-0.04045292130433395,-0.2991428026717152,-1.4388048958328103
-0.04045292130433395,-1.1639526647470972,-0.41315329915734744
-0.04045292130433395,-1.1639526647470972,-1.4388048958328103
-0.04045292130433395,-1.1639526647470972,0.4090901374221617
-0.04045292130433395,-1.1639526647470972,0.47297638784311685
-0.04045292130433395,-1.1639526647470972,-0.6519720843284539
-0.04045292130433395,0.4090901374221617,-0.41315329915734744
-0.04045292130433395,0.4090901374221617,-1.4388048958328103
-0.04045292130433395,0.4090901374221617,0.47297638784311685
-0.04045292130433395,0.4090901374221617,-0.6519720843284539
-0.04045292130433395,0.47297638784311685,-0.41315329915734744
-0.04045292130433395,0.47297638784311685,-1.4388048958328103
-0.04045292130433395,0.47297638784311685,-0.6519720843284539
-0.04045292130433395,-0.6519720843284539,-0.41315329915734744
-0.04045292130433395,-0.6519720843284539,-1.4388048958328103
-0.04045292130433395,-0.41315329915734744,-1.4388048958328103
1.4930330413881339,-0.2991428026717152,-1.1639526647470972
1.4930330413881339,-0.2991428026717152,0.4090901374221617
1.4930330413881339,-0.2991428026717152,0.47297638784311685
1.4930330413881339,-0.2991428026717152,-0.6519720843284539
1.4930330413881339,-0.2991428026717152,-0.41315329915734744
1.4930330413881339,-0.2991428026717152,-1.4388048958328103
1.4930330413881339,-1.1639526647470972,-0.41315329915734744
1.4930330413881339,-1.1639526647470972,-1.4388048958328103
1.4930330413881339,-1.1639526647470972,0.4090901374221617
1.4930330413881339,-1.1639526647470972,0.47297638784311685
1.4930330413881339,-1.1639526647470972,-0.6519720843284539
1.4930330413881339,0.4090901374221617,-0.41315329915734744
1.4930330413881339,0.4090901374221617,-1.4388048958328103
1.4930330413881339,0.4090901374221617,0.47297638784311685
1.4930330413881339,0.4090901374221617,-0.6519720843284539
1.4930330413881339,0.47297638784311685,-0.41315329915734744
1.4930330413881339,0.47297638784311685,-1.4388048958328103
1.4930330413881339,0.47297638784311685,-0.6519720843284539
1.4930330413881339,-0.6519720843284539,-0.41315329915734744
1.4930330413881339,-0.6519720843284539,-1.4388048958328103
1.4930330413881339,-0.41315329915734744,-1.4388048958328103
-0.2991428026717152,-1.1639526647470972,-0.41315329915734744
-0.2991428026717152,-1.1639526647470972,-1.4388048958328103
-0.2991428026717152,-1.1639526647470972,0.4090901374221617
-0.2991428026717152,-1.1639526647470972,0.47297638784311685
-0.2991428026717152,-1.1639526647470972,-0.6519720843284539
-0.2991428026717152,0.4090901374221617,-0.41315329915734744
-0.2991428026717152,0.4090901374221617,-1.4388048958328103
-0.2991428026717152,0.4090901374221617,0.47297638784311685
-0.2991428026717152,0.4090901374221617,-0.6519720843284539
-0.2991428026717152,0.47297638784311685,-0.41315329915734744
-0.2991428026717152,0.47297638784311685,-1.4388048958328103
-0.2991428026717152,0.47297638784311685,-0.6519720843284539
-0.2991428026717152,-0.6519720843284539,-0.41315329915734744
-0.2991428026717152,-0.6519720843284539,-1.4388048958328103
-0.2991428026717152,-0.41315329915734744,-1.4388048958328103
-1.1639526647470972,-0.41315329915734744,-1.4388048958328103
-1.1639526647470972,0.4090901374221617,-0.41315329915734744
-1.1639526647470972,0.4090901374221617,-1.4388048958328103
-1.1639526647470972,0.4090901374221617,0.47297638784311685
-1.1639526647470972,0.4090901374221617,-0.6519720843284539
-1.1639526647470972,0.47297638784311685,-0.41315329915734744
-1.1639526647470972,0.47297638784311685,-1.4388048958328103
-1.1639526647470972,0.47297638784311685,-0.6519720843284539
-1.1639526647470972,-0.6519720843284539,-0.41315329915734744
-1.1639526647470972,-0.6519720843284539,-1.4388048958328103
0.4090901374221617,-0.41315329915734744,-1.4388048958328103
0.4090901374221617,0.47297638784311685,-0.41315329915734744
0.4090901374221617,0.47297638784311685,-1.4388048958328103
0.4090901374221617,0.47297638784311685,-0.6519720843284539
0.4090901374221617,-0.6519720843284539,-0.41315329915734744
0.4090901374221617,-0.6519720843284539,-1.4388048958328103
0.47297638784311685,-0.41315329915734744,-1.4388048958328103
0.47297638784311685,-0.6519720843284539,-0.41315329915734744
0.47297638784311685,-0.6519720843284539,-1.4388048958328103
-0.6519720843284539,-0.41315329915734744,-1.4388048958328103
