0,1,2
-0.34522297951493186,2.532634650250783,-0.9232491965028924
-0.34522297951493186,2.532634650250783,0.49798724590290755
-0.34522297951493186,2.532634650250783,-1.7949614456460574
-0.34522297951493186,2.532634650250783,1.8037978843070777
-0.34522297951493186,2.532634650250783,0.3940646476673648
-0.34522297951493186,2.532634650250783,-0.31788706270169614
-0.34522297951493186,2.532634650250783,-1.3094304055664066
-0.34522297951493186,2.532634650250783,0.5866610214023018
-0.34522297951493186,-0.9232491965028924,0.49798724590290755
-0.34522297951493186,-0.9232491965028924,-1.7949614456460574
-0.34522297951493186,-0.9232491965028924,1.8037978843070777
-0.34522297951493186,-0.9232491965028924,0.3940646476673648
-0.34522297951493186,-0.9232491965028924,-0.31788706270169614
-0.34522297951493186,-0.9232491965028924,-1.3094304055664066
-0.34522297951493186,-0.9232491965028924,0.5866610214023018
-0.34522297951493186,0.49798724590290755,-1.7949614456460574
-0.34522297951493186,0.49798724590290755,1.8037978843070777
-0.34522297951493186,0.49798724590290755,0.3940646476673648
-0.34522297951493186,0.49798724590290755,-0.31788706270169614
-0.34522297951493186,0.49798724590290755,-1.3094304055664066
-0.34522297951493186,0.49798724590290755,0.5866610214023018
-0.34522297951493186,-1.7949614456460574,-1.3094304055664066
-0.34522297951493186,-1.7949614456460574,0.5866610214023018
-0.34522297951493186,-1.7949614456460574,1.8037978843070777
-0.34522297951493186,-1.7949614456460574,0.3940646476673648
-0.34522297951493186,-1.7949614456460574,-0.31788706270169614
-0.34522297951493186,1.8037978843070777,-1.3094304055664066
-0.34522297951493186,1.8037978843070777,0.5866610214023018
-0.34522297951493186,1.8037978843070777,0.3940646476673648
-0.34522297951493186,1.8037978843070777,-0.31788706270169614
-0.34522297951493186,0.3940646476673648,-1.3094304055664066
-0.34522297951493186,0.3940646476673648,0.5866610214023018
-0.34522297951493186,0.3940646476673648,-0.31788706270169614
-0.34522297951493186,-0.31788706270169614,-1.3094304055664066
-0.34522297951493186,-0.31788706270169614,0.5866610214023018
-0.34522297951493186,-1.3094304055664066,0.5866610214023018
2.532634650250783,-0.9232491965028924,0.49798724590290755
2.532634650250783,-0.9232491965028924,-1.7949614456460574
2.532634650250783,-0.9232491965028924,1.8037978843070777
2.532634650250783,-0.9232491965028924,0.3940646476673648
2.532634650250783,-0.9232491965028924,-0.31788706270169614
2.532634650250783,-0.9232491965028924,-1.3094304055664066
2.532634650250783,-0.9232491965028924,0.5866610214023018
2.532634650250783,0.49798724590290755,-1.7949614456460574
2.532634650250783,0.49798724590290755,1.8037978843070777
2.532634650250783,0.49798724590290755,0.3940646476673648
2.532634650250783,0.49798724590290755,-0.31788706270169614
2.532634650250783,0.49798724590290755,-1.3094304055664066
2.532634650250783,0.49798724590290755,0.5866610214023018
2.532634650250783,-1.7949614456460574,-1.3094304055664066
2.532634650250783,-1.7949614456460574,0.5866610214023018
2.532634650250783,-1.7949614456460574,1.8037978843070777
2.532634650250783,-1.7949614456460574,0.3940646476673648
2.532634650250783,-1.7949614456460574,-0.31788706270169614
2.532634650250783,1.8037978843070777,-1.3094304055664066
2.532634650250783,1.8037978843070777,0.5866610214023018
2.532634650250783,1.8037978843070777,0.3940646476673648
2.532634650250783,1.8037978843070777,-0.31788706270169614
2.532634650250783,0.3940646476673648,-1.3094304055664066
2.532634650250783,0.3940646476673648,0.5866610214023018
2.532634650250783,0.3940646476673648,-0.31788706270169614
2.532634650250783,-0.31788706270169614,-1.3094304055664066
2.532634650250783,-0.31788706270169614,0.5866610214023018
2.532634650250783,-1.3094304055664066,0.5866610214023018
-0.9232491965028924,0.49798724590290755,-1.7949614456460574
-0.9232491965028924,0.49798724590290755,1.8037978843070777
-0.9232491965028924,0.49798724590290755,0.3940646476673648
-0.9232491965028924,0.49798724590290755,-0.31788706270169614
-0.9232491965028924,0.49798724590290755,-1.3094304055664066
-0.9232491965028924,0.49798724590290755,0.5866610214023018
-0.9232491965028924,-1.7949614456460574,-1.3094304055664066
-0.9232491965028924,-1.7949614456460574,0.5866610214023018
-0.9232491965028924,-1.7949614456460574,1.8037978843070777
-0.9232491965028924,-1.7949614456460574,0.3940646476673648
-0.9232491965028924,-1.7949614456460574,-0.31788706270169614
-0.9232491965028924,1.8037978843070777,-1.3094304055664066
-0.9232491965028924,1.8037978843070777,0.5866610214023018
-0.9232491965028924,1.8037978843070777,0.3940646476673648
-0.9232491965028924,1.8037978843070777,-0.31788706270169614
-0.9232491965028924,0.3940646476673648,-1.3094304055664066
-0.9232491965028924,0.3940646476673648,0.5866610214023018
-0.9232491965028924,0.3940646476673648,-0.31788706270169614
-0.9232491965028924,-0.31788706270169614,-1.3094304055664066
-0.9232491965028924,-0.31788706270169614,0.5866610214023018
-0.9232491965028924,-1.3094304055664066,0.5866610214023018
0.49798724590290755,-1.7949614456460574,-1.3094304055664066
0.49798724590290755,-1.7949614456460574,0.5866610214023018
0.49798724590290755,-1.7949614456460574,1.8037978843070777
0.49798724590290755,-1.7949614456460574,0.3940646476673648
0.49798724590290755,-1.7949614456460574,-0.31788706270169614
0.49798724590290755,1.8037978843070777,-1.3094304055664066
0.49798724590290755,1.8037978843070777,0.5866610214023018
0.49798724590290755,1.8037978843070777,0.3940646476673648
0.49798724590290755,1.8037978843070777,-0.31788706270169614
0.49798724590290755,0.3940646476673648,-1.3094304055664066
0.49798724590290755,0.3940646476673648,0.5866610214023018
0.49798724590290755,0.3940646476673648,-0.31788706270169614
0.49798724590290755,-0.31788706270169614,-1.3094304055664066
0.49798724590290755,-0.31788706270169614,0.5866610214023018
0.49798724590290755,-1.3094304055664066,0.5866610214023018
-1.7949614456460574,-1.3094304055664066,0.5866610214023018
-1.7949614456460574,1.8037978843070777,-1.3094304055664066
-1.7949614456460574,1.8037978843070777,0.5866610214023018
-1.7949614456460574,1.8037978843070777,0.3940646476673648
-1.7949614456460574,1.8037978843070777,-0.31788706270169614
-1.7949614456460574,0.3940646476673648,-1.3094304055664066
-1.7949614456460574,0.3940646476673648,0.5866610214023018
-1.7949614456460574,0.3940646476673648,-0.31788706270169614
-1.7949614456460574,-0.31788706270169614,-1.3094304055664066
-1.7949614456460574,-0.31788706270169614,0.5866610214023018
1.8037978843070777,-1.3094304055664066,0.5866610214023018
1.8037978843070777,0.3940646476673648,-1.3094304055664066
1.8037978843070777,0.3940646476673648,0.5866610214023018
1.8037978843070777,0.3940646476673648,-0.31788706270169614
1.8037978843070777,-0.31788706270169614,-1.3094304055664066
1.8037978843070777,-0.31788706270169614,0.5866610214023018
0.3940646476673648,-1.3094304055664066,0.5866610214023018
0.3940646476673648,-0.31788706270169614,-1.3094304055664066
0.3940646476673648,-0.31788706270169614,0.5866610214023018
-0.31788706270169614,-1.3094304055664066,0.5866610214023018
