0,1,2
0.766436142497887,0.14904736095063026,0.7857234560598038
0.766436142497887,0.14904736095063026,1.2523204321006602
0.766436142497887,0.14904736095063026,0.2719739600770801
0.766436142497887,0.14904736095063026,1.369351748964645
0.766436142497887,0.14904736095063026,-0.45473287252196665
0.766436142497887,0.14904736095063026,-1.048016293274245
0.766436142497887,0.14904736095063026,0.7423861947164008
0.766436142497887,0.14904736095063026,-1.7405094877824159
0.766436142497887,0.7857234560598038,1.2523204321006602
0.766436142497887,0.7857234560598038,0.2719739600770801
0.766436142497887,0.7857234560598038,1.369351748964645
0.766436142497887,0.7857234560598038,-0.45473287252196665
0.766436142497887,0.7857234560598038,-1.048016293274245
0.766436142497887,0.7857234560598038,0.7423861947164008
0.766436142497887,0.7857234560598038,-1.7405094877824159
0.766436142497887,1.2523204321006602,0.2719739600770801
0.766436142497887,1.2523204321006602,1.369351748964645
0.766436142497887,1.2523204321006602,-0.45473287252196665
0.766436142497887,1.2523204321006602,-1.048016293274245
0.766436142497887,1.2523204321006602,0.7423861947164008
0.766436142497887,1.2523204321006602,-1.7405094877824159
0.766436142497887,0.2719739600770801,0.7423861947164008
0.766436142497887,0.2719739600770801,-1.7405094877824159
0.766436142497887,0.2719739600770801,1.369351748964645
0.766436142497887,0.2719739600770801,-0.45473287252196665
0.766436142497887,0.2719739600770801,-1.048016293274245
0.766436142497887,1.369351748964645,0.7423861947164008
0.766436142497887,1.369351748964645,-1.7405094877824159
0.766436142497887,1.369351748964645,-0.45473287252196665
0.766436142497887,1.369351748964645,-1.048016293274245
0.766436142497887,-0.45473287252196665,0.7423861947164008
0.766436142497887,-0.45473287252196665,-1.7405094877824159
0.766436142497887,-0.45473287252196665,-1.048016293274245
0.766436142497887,-1.048016293274245,0.7423861947164008
0.766436142497887,-1.048016293274245,-1.7405094877824159
0.766436142497887,0.7423861947164008,-1.7405094877824159
0.14904736095063026,0.7857234560598038,1.2523204321006602
0.14904736095063026,0.7857234560598038,0.2719739600770801
0.14904736095063026,0.7857234560598038,1.369351748964645
0.14904736095063026,0.7857234560598038,-0.45473287252196665
0.14904736095063026,0.7857234560598038,-1.048016293274245
0.14904736095063026,0.7857234560598038,0.7423861947164008
0.14904736095063026,0.7857234560598038,-1.7405094877824159
0.14904736095063026,1.2523204321006602,0.2719739600770801
0.14904736095063026,1.2523204321006602,1.369351748964645
0.14904736095063026,1.2523204321006602,-0.45473287252196665
0.14904736095063026,1.2523204321006602,-1.048016293274245
0.14904736095063026,1.2523204321006602,0.7423861947164008
0.14904736095063026,1.2523204321006602,-1.7405094877824159
0.14904736095063026,0.2719739600770801,0.7423861947164008
0.14904736095063026,0.2719739600770801,-1.7405094877824159
0.14904736095063026,0.2719739600770801,1.369351748964645
0.14904736095063026,0.2719739600770801,-0.45473287252196665
0.14904736095063026,0.2719739600770801,-1.048016293274245
0.14904736095063026,1.369351748964645,0.7423861947164008
0.14904736095063026,1.369351748964645,-1.7405094877824159
0.14904736095063026,1.369351748964645,-0.45473287252196665
0.14904736095063026,1.369351748964645,-1.048016293274245
0.14904736095063026,-0.45473287252196665,0.7423861947164008
0.14904736095063026,-0.45473287252196665,-1.7405094877824159
0.14904736095063026,-0.45473287252196665,-1.048016293274245
0.14904736095063026,-1.048016293274245,0.7423861947164008
0.14904736095063026,-1.048016293274245,-1.7405094877824159
0.14904736095063026,0.7423861947164008,-1.7405094877824159
0.7857234560598038,1.2523204321006602,0.2719739600770801
0.7857234560598038,1.2523204321006602,1.369351748964645
0.7857234560598038,1.2523204321006602,-0.45473287252196665
0.7857234560598038,1.2523204321006602,-1.048016293274245
0.7857234560598038,1.2523204321006602,0.7423861947164008
0.7857234560598038,1.2523204321006602,-1.7405094877824159
0.7857234560598038,0.2719739600770801,0.7423861947164008
0.7857234560598038,0.2719739600770801,-1.7405094877824159
0.7857234560598038,0.2719739600770801,1.369351748964645
0.7857234560598038,0.2719739600770801,-0.45473287252196665
0.7857234560598038,0.2719739600770801,-1.048016293274245
0.7857234560598038,1.369351748964645,0.7423861947164008
0.7857234560598038,1.369351748964645,-1.7405094877824159
0.7857234560598038,1.369351748964645,-0.45473287252196665
0.7857234560598038,1.369351748964645,-1.048016293274245
0.7857234560598038,-0.45473287252196665,0.7423861947164008
0.7857234560598038,-0.45473287252196665,-1.7405094877824159
0.7857234560598038,-0.45473287252196665,-1.048016293274245
0.7857234560598038,-1.048016293274245,0.7423861947164008
0.7857234560598038,-1.048016293274245,-1.7405094877824159
0.7857234560598038,0.7423861947164008,-1.7405094877824159
1.2523204321006602,0.2719739600770801,0.7423861947164008
1.2523204321006602,0.2719739600770801,-1.7405094877824159
1.2523204321006602,0.2719739600770801,1.369351748964645
1.2523204321006602,0.2719739600770801,-0.45473287252196665
1.2523204321006602,0.2719739600770801,-1.048016293274245
1.2523204321006602,1.369351748964645,0.7423861947164008
1.2523204321006602,1.369351748964645,-1.7405094877824159
1.2523204321006602,1.369351748964645,-0.45473287252196665
1.2523204321006602,1.369351748964645,-1.048016293274245
1.2523204321006602,-0.45473287252196665,0.7423861947164008
1.2523204321006602,-0.45473287252196665,-1.7405094877824159
1.2523204321006602,-0.45473287252196665,-1.048016293274245
1.2523204321006602,-1.048016293274245,0.7423861947164008
1.2523204321006602,-1.048016293274245,-1.7405094877824159
1.2523204321006602,0.7423861947164008,-1.7405094877824159
0.2719739600770801,0.7423861947164008,-1.7405094877824159
0.2719739600770801,1.369351748964645,0.7423861947164008
0.2719739600770801,1.369351748964645,-1.7405094877824159
0.2719739600770801,1.369351748964645,-0.45473287252196665
0.2719739600770801,1.369351748964645,-1.048016293274245
0.2719739600770801,-0.45473287252196665,0.7423861947164008
0.2719739600770801,-0.45473287252196665,-1.7405094877824159
0.2719739600770801,-0.45473287252196665,-1.048016293274245
0.2719739600770801,-1.048016293274245,0.7423861947164008
0.2719739600770801,-1.048016293274245,-1.7405094877824159
1.369351748964645,0.7423861947164008,-1.7405094877824159
1.369351748964645,-0.45473287252196665,0.7423861947164008
1.369351748964645,-0.45473287252196665,-1.7405094877824159
1.369351748964645,-0.45473287252196665,-1.048016293274245
1.369351748964645,-1.048016293274245,0.7423861947164008
1.369351748964645,-1.048016293274245,-1.7405094877824159
-0.45473287252196665,0.7423861947164008,-1.7405094877824159
-0.45473287252196665,-1.048016293274245,0.7423861947164008
-0.45473287252196665,-1.048016293274245,-1.7405094877824159
-1.048016293274245,0.7423861947164008,-1.7405094877824159
