0,1,2
1.249542139682,-0.9504596064432419,-1.4573994739824399
1.249542139682,-0.9504596064432419,2.176507590496542
1.249542139682,-0.9504596064432419,-0.1452668919290365
1.249542139682,-0.9504596064432419,0.618052329286682
1.249542139682,-0.9504596064432419,-1.0371304157428642
1.249542139682,-0.9504596064432419,-0.6177521428011468
1.249542139682,-0.9504596064432419,-0.7642359785884244
1.249542139682,-0.9504596064432419,-0.5327220232633549
1.249542139682,-1.4573994739824399,2.176507590496542
1.249542139682,-1.4573994739824399,-0.1452668919290365
1.249542139682,-1.4573994739824399,0.618052329286682
1.249542139682,-1.4573994739824399,-1.0371304157428642
1.249542139682,-1.4573994739824399,-0.6177521428011468
1.249542139682,-1.4573994739824399,-0.7642359785884244
1.249542139682,-1.4573994739824399,-0.5327220232633549
1.249542139682,2.176507590496542,-0.1452668919290365
1.249542139682,2.176507590496542,0.618052329286682
1.249542139682,2.176507590496542,-1.0371304157428642
1.249542139682,2.176507590496542,-0.6177521428011468
1.249542139682,2.176507590496542,-0.7642359785884244
1.249542139682,2.176507590496542,-0.5327220232633549
1.249542139682,-0.1452668919290365,-0.7642359785884244
1.249542139682,-0.1452668919290365,-0.5327220232633549
1.249542139682,-0.1452668919290365,0.618052329286682
1.249542139682,-0.1452668919290365,-1.0371304157428642
1.249542139682,-0.1452668919290365,-0.6177521428011468
1.249542139682,0.618052329286682,-0.7642359785884244
1.249542139682,0.618052329286682,-0.5327220232633549
1.249542139682,0.618052329286682,-1.0371304157428642
1.249542139682,0.618052329286682,-0.6177521428011468
1.249542139682,-1.0371304157428642,-0.7642359785884244
1.249542139682,-1.0371304157428642,-0.5327220232633549
1.249542139682,-1.0371304157428642,-0.6177521428011468
1.249542139682,-0.6177521428011468,-0.7642359785884244
1.249542139682,-0.6177521428011468,-0.5327220232633549
1.249542139682,-0.7642359785884244,-0.5327220232633549
-0.9504596064432419,-1.4573994739824399,2.176507590496542
-0.9504596064432419,-1.4573994739824399,-0.1452668919290365
-0.9504596064432419,-1.4573994739824399,0.618052329286682
-0.9504596064432419,-1.4573994739824399,-1.0371304157428642
-0.9504596064432419,-1.4573994739824399,-0.6177521428011468
-0.9504596064432419,-1.4573994739824399,-0.7642359785884244
-0.9504596064432419,-1.4573994739824399,-0.5327220232633549
-0.9504596064432419,2.176507590496542,-0.1452668919290365
-0.9504596064432419,2.176507590496542,0.618052329286682
-0.9504596064432419,2.176507590496542,-1.0371304157428642
-0.9504596064432419,2.176507590496542,-0.6177521428011468
-0.9504596064432419,2.176507590496542,-0.7642359785884244
-0.9504596064432419,2.176507590496542,-0.5327220232633549
-0.9504596064432419,-0.1452668919290365,-0.7642359785884244
-0.9504596064432419,-0.1452668919290365,-0.5327220232633549
-0.9504596064432419,-0.1452668919290365,0.618052329286682
-0.9504596064432419,-0.1452668919290365,-1.0371304157428642
-0.9504596064432419,-0.1452668919290365,-0.6177521428011468
-0.9504596064432419,0.618052329286682,-0.7642359785884244
-0.9504596064432419,0.618052329286682,-0.5327220232633549
-0.9504596064432419,0.618052329286682,-1.0371304157428642
-0.9504596064432419,0.618052329286682,-0.6177521428011468
-0.9504596064432419,-1.0371304157428642,-0.7642359785884244
-0.9504596064432419,-1.0371304157428642,-0.5327220232633549
-0.9504596064432419,-1.0371304157428642,-0.6177521428011468
-0.9504596064432419,-0.6177521428011468,-0.7642359785884244
-0.9504596064432419,-0.6177521428011468,-0.5327220232633549
-0.9504596064432419,-0.7642359785884244,-0.5327220232633549
-1.4573994739824399,2.176507590496542,-0.1452668919290365
-1.4573994739824399,2.176507590496542,0.618052329286682
-1.4573994739824399,2.176507590496542,-1.0371304157428642
-1.4573994739824399,2.176507590496542,-0.6177521428011468
-1.4573994739824399,2.176507590496542,-0.7642359785884244
-1.4573994739824399,2.176507590496542,-0.5327220232633549
-1.4573994739824399,-0.1452668919290365,-0.7642359785884244
-1.4573994739824399,-0.1452668919290365,-0.5327220232633549
-1.4573994739824399,-0.1452668919290365,0.618052329286682
-1.4573994739824399,-0.1452668919290365,-1.0371304157428642
-1.4573994739824399,-0.1452668919290365,-0.6177521428011468
-1.4573994739824399,0.618052329286682,-0.7642359785884244
-1.4573994739824399,0.618052329286682,-0.5327220232633549
-1.4573994739824399,0.618052329286682,-1.0371304157428642
-1.4573994739824399,0.618052329286682,-0.6177521428011468
-1.4573994739824399,-1.0371304157428642,-0.7642359785884244
-1.4573994739824399,-1.0371304157428642,-0.5327220232633549
-1.4573994739824399,-1.0371304157428642,-0.6177521428011468
-1.4573994739824399,-0.6177521428011468,-0.7642359785884244
-1.4573994739824399,-0.6177521428011468,-0.5327220232633549
-1.4573994739824399,-0.7642359785884244,-0.5327220232633549
2.176507590496542,-0.1452668919290365,-0.7642359785884244
2.176507590496542,-0.1452668919290365,-0.5327220232633549
2.176507590496542,-0.1452668919290365,0.618052329286682
2.176507590496542,-0.1452668919290365,-1.0371304157428642
2.176507590496542,-0.1452668919290365,-0.6177521428011468
2.176507590496542,0.618052329286682,-0.7642359785884244
2.176507590496542,0.618052329286682,-0.5327220232633549
2.176507590496542,0.618052329286682,-1.0371304157428642
2.176507590496542,0.618052329286682,-0.6177521428011468
2.176507590496542,-1.0371304157428642,-0.7642359785884244
2.176507590496542,-1.0371304157428642,-0.5327220232633549
2.176507590496542,-1.0371304157428642,-0.6177521428011468
2.176507590496542,-0.6177521428011468,-0.7642359785884244
2.176507590496542,-0.6177521428011468,-0.5327220232633549
2.176507590496542,-0.7642359785884244,-0.5327220232633549
-0.1452668919290365,-0.7642359785884244,-0.5327220232633549
-0.1452668919290365,0.618052329286682,-0.7642359785884244
-0.1452668919290365,0.618052329286682,-0.5327220232633549
-0.1452668919290365,0.618052329286682,-1.0371304157428642
-0.1452668919290365,0.618052329286682,-0.6177521428011468
-0.1452668919290365,-1.0371304157428642,-0.7642359785884244
-0.1452668919290365,-1.0371304157428642,-0.5327220232633549
-0.1452668919290365,-1.0371304157428642,-0.6177521428011468
-0.1452668919290365,-0.6177521428011468,-0.7642359785884244
-0.1452668919290365,-0.6177521428011468,-0.5327220232633549
0.618052329286682,-0.7642359785884244,-0.5327220232633549
0.618052329286682,-1.0371304157428642,-0.7642359785884244
0.618052329286682,-1.0371304157428642,-0.5327220232633549
0.618052329286682,-1.0371304157428642,-0.6177521428011468
0.618052329286682,-0.6177521428011468,-0.7642359785884244
0.618052329286682,-0.6177521428011468,-0.5327220232633549
-1.0371304157428642,-0.7642359785884244,-0.5327220232633549
-1.0371304157428642,-0.6177521428011468,-0.7642359785884244
-1.0371304157428642,-0.6177521428011468,-0.5327220232633549
-0.6177521428011468,-0.7642359785884244,-0.5327220232633549
