0,1,2
-0.3753931360276329,-0.958340276089483,-1.0308793439883015
-0.3753931360276329,-0.958340276089483,-0.5630581179115597
-0.3753931360276329,-0.958340276089483,0.13879049198698531
-0.3753931360276329,-0.958340276089483,0.16359750890405925
-0.3753931360276329,-0.958340276089483,1.5025075213900174
-0.3753931360276329,-0.958340276089483,1.2708301847690742
-0.3753931360276329,-0.958340276089483,-0.49566063565242596
-0.3753931360276329,-0.958340276089483,1.7664278974718992
-0.3753931360276329,-1.0308793439883015,-0.5630581179115597
-0.3753931360276329,-1.0308793439883015,0.13879049198698531
-0.3753931360276329,-1.0308793439883015,0.16359750890405925
-0.3753931360276329,-1.0308793439883015,1.5025075213900174
-0.3753931360276329,-1.0308793439883015,1.2708301847690742
-0.3753931360276329,-1.0308793439883015,-0.49566063565242596
-0.3753931360276329,-1.0308793439883015,1.7664278974718992
-0.3753931360276329,-0.5630581179115597,0.13879049198698531
-0.3753931360276329,-0.5630581179115597,0.16359750890405925
-0.3753931360276329,-0.5630581179115597,1.5025075213900174
-0.3753931360276329,-0.5630581179115597,1.2708301847690742
-0.3753931360276329,-0.5630581179115597,-0.49566063565242596
-0.3753931360276329,-0.5630581179115597,1.7664278974718992
-0.3753931360276329,0.13879049198698531,-0.49566063565242596
-0.3753931360276329,0.13879049198698531,1.7664278974718992
-0.3753931360276329,0.13879049198698531,0.16359750890405925
-0.3753931360276329,0.13879049198698531,1.5025075213900174
-0.3753931360276329,0.13879049198698531,1.2708301847690742
-0.3753931360276329,0.16359750890405925,-0.49566063565242596
-0.3753931360276329,0.16359750890405925,1.7664278974718992
-0.3753931360276329,0.16359750890405925,1.5025075213900174
-0.3753931360276329,0.16359750890405925,1.2708301847690742
-0.3753931360276329,1.5025075213900174,-0.49566063565242596
-0.3753931360276329,1.5025075213900174,1.7664278974718992
-0.3753931360276329,1.5025075213900174,1.2708301847690742
-0.3753931360276329,1.2708301847690742,-0.49566063565242596
-0.3753931360276329,1.2708301847690742,1.7664278974718992
-0.3753931360276329,-0.49566063565242596,1.7664278974718992
-0.958340276089483,-1.0308793439883015,-0.5630581179115597
-0.958340276089483,-1.0308793439883015,0.13879049198698531
-0.958340276089483,-1.0308793439883015,0.16359750890405925
-0.958340276089483,-1.0308793439883015,1.5025075213900174
-0.958340276089483,-1.0308793439883015,1.2708301847690742
-0.958340276089483,-1.0308793439883015,-0.49566063565242596
-0.958340276089483,-1.0308793439883015,1.7664278974718992
-0.958340276089483,-0.5630581179115597,0.13879049198698531
-0.958340276089483,-0.5630581179115597,0.16359750890405925
-0.958340276089483,-0.5630581179115597,1.5025075213900174
-0.958340276089483,-0.5630581179115597,1.2708301847690742
-0.958340276089483,-0.5630581179115597,-0.49566063565242596
-0.958340276089483,-0.5630581179115597,1.7664278974718992
-0.958340276089483,0.13879049198698531,-0.49566063565242596
-0.958340276089483,0.13879049198698531,1.7664278974718992
-0.958340276089483,0.13879049198698531,0.16359750890405925
-0.958340276089483,0.13879049198698531,1.5025075213900174
-0.958340276089483,0.13879049198698531,1.2708301847690742
-0.958340276089483,0.16359750890405925,-0.49566063565242596
-0.958340276089483,0.16359750890405925,1.7664278974718992
-0.958340276089483,0.16359750890405925,1.5025075213900174
-0.958340276089483,0.16359750890405925,1.2708301847690742
-0.958340276089483,1.5025075213900174,-0.49566063565242596
-0.958340276089483,1.5025075213900174,1.7664278974718992
-0.958340276089483,1.5025075213900174,1.2708301847690742
-0.958340276089483,1.2708301847690742,-0.49566063565242596
-0.958340276089483,1.2708301847690742,1.7664278974718992
-0.958340276089483,-0.49566063565242596,1.7664278974718992
-1.0308793439883015,-0.5630581179115597,0.13879049198698531
-1.0308793439883015,-0.5630581179115597,0.16359750890405925
-1.0308793439883015,-0.5630581179115597,1.5025075213900174
-1.0308793439883015,-0.5630581179115597,1.2708301847690742
-1.0308793439883015,-0.5630581179115597,-0.49566063565242596
-1.0308793439883015,-0.5630581179115597,1.7664278974718992
-1.0308793439883015,0.13879049198698531,-0.49566063565242596
-1.0308793439883015,0.13879049198698531,1.7664278974718992
-1.0308793439883015,0.13879049198698531,0.16359750890405925
-1.0308793439883015,0.13879049198698531,1.5025075213900174
-1.0308793439883015,0.13879049198698531,1.2708301847690742
-1.0308793439883015,0.16359750890405925,-0.49566063565242596
-1.0308793439883015,0.16359750890405925,1.7664278974718992
-1.0308793439883015,0.16359750890405925,1.5025075213900174
-1.0308793439883015,0.16359750890405925,1.2708301847690742
-1.0308793439883015,1.5025075213900174,-0.49566063565242596
-1.0308793439883015,1.5025075213900174,1.7664278974718992
-1.0308793439883015,1.5025075213900174,1.2708301847690742
-1.0308793439883015,1.2708301847690742,-0.49566063565242596
-1.0308793439883015,1.2708301847690742,1.7664278974718992
-1.0308793439883015,-0.49566063565242596,1.7664278974718992
-0.5630581179115597,0.13879049198698531,-0.49566063565242596
-0.5630581179115597,0.13879049198698531,1.7664278974718992
-0.5630581179115597,0.13879049198698531,0.16359750890405925
-0.5630581179115597,0.13879049198698531,1.5025075213900174
-0.5630581179115597,0.13879049198698531,1.2708301847690742
-0.5630581179115597,0.16359750890405925,-0.49566063565242596
-0.5630581179115597,0.16359750890405925,1.7664278974718992
-0.5630581179115597,0.16359750890405925,1.5025075213900174
-0.5630581179115597,0.16359750890405925,1.2708301847690742
-0.5630581179115597,1.5025075213900174,-0.49566063565242596
-0.5630581179115597,1.5025075213900174,1.7664278974718992
-0.5630581179115597,1.5025075213900174,1.2708301847690742
-0.5630581179115597,1.2708301847690742,-0.49566063565242596
-0.5630581179115597,1.2708301847690742,1.7664278974718992
-0.5630581179115597,-0.49566063565242596,1.7664278974718992
0.13879049198698531,-0.49566063565242596,1.7664278974718992
0.13879049198698531,0.16359750890405925,-0.49566063565242596
0.13879049198698531,0.16359750890405925,1.7664278974718992
0.13879049198698531,0.16359750890405925,1.5025075213900174
0.13879049198698531,0.16359750890405925,1.2708301847690742
0.13879049198698531,1.5025075213900174,-0.49566063565242596
0.13879049198698531,1.5025075213900174,1.7664278974718992
0.13879049198698531,1.5025075213900174,1.2708301847690742
0.13879049198698531,1.2708301847690742,-0.49566063565242596
0.13879049198698531,1.2708301847690742,1.7664278974718992
0.16359750890405925,-0.49566063565242596,1.7664278974718992
0.16359750890405925,1.5025075213900174,-0.49566063565242596
0.16359750890405925,1.5025075213900174,1.7664278974718992
0.16359750890405925,1.5025075213900174,1.2708301847690742
0.16359750890405925,1.2708301847690742,-0.49566063565242596
0.16359750890405925,1.2708301847690742,1.7664278974718992
1.5025075213900174,-0.49566063565242596,1.7664278974718992
1.5025075213900174,1.2708301847690742,-0.49566063565242596
1.5025075213900174,1.2708301847690742,1.7664278974718992
1.2708301847690742,-0.49566063565242596,1.7664278974718992
