0,1,2
1.4522432497395292,0.999430441979556,-0.5439116258881697
1.4522432497395292,0.999430441979556,0.8656883631619495
1.4522432497395292,0.999430441979556,-1.1242554860291274
1.4522432497395292,0.999430441979556,-0.08140002941113521
1.4522432497395292,0.999430441979556,-0.06949666494522436
1.4522432497395292,0.999430441979556,0.04282026180065794
1.4522432497395292,0.999430441979556,-0.003564431997717145
1.4522432497395292,0.999430441979556,0.602076823905634
1.4522432497395292,-0.5439116258881697,0.8656883631619495
1.4522432497395292,-0.5439116258881697,-1.1242554860291274
1.4522432497395292,-0.5439116258881697,-0.08140002941113521
1.4522432497395292,-0.5439116258881697,-0.06949666494522436
1.4522432497395292,-0.5439116258881697,0.04282026180065794
1.4522432497395292,-0.5439116258881697,-0.003564431997717145
1.4522432497395292,-0.5439116258881697,0.602076823905634
1.4522432497395292,0.8656883631619495,-1.1242554860291274
1.4522432497395292,0.8656883631619495,-0.08140002941113521
1.4522432497395292,0.8656883631619495,-0.06949666494522436
1.4522432497395292,0.8656883631619495,0.04282026180065794
1.4522432497395292,0.8656883631619495,-0.003564431997717145
1.4522432497395292,0.8656883631619495,0.602076823905634
1.4522432497395292,-1.1242554860291274,-0.003564431997717145
1.4522432497395292,-1.1242554860291274,0.602076823905634
1.4522432497395292,-1.1242554860291274,-0.08140002941113521
1.4522432497395292,-1.1242554860291274,-0.06949666494522436
1.4522432497395292,-1.1242554860291274,0.04282026180065794
1.4522432497395292,-0.08140002941113521,-0.003564431997717145
1.4522432497395292,-0.08140002941113521,0.602076823905634
1.4522432497395292,-0.08140002941113521,-0.06949666494522436
1.4522432497395292,-0.08140002941113521,0.04282026180065794
1.4522432497395292,-0.06949666494522436,-0.003564431997717145
1.4522432497395292,-0.06949666494522436,0.602076823905634
1.4522432497395292,-0.06949666494522436,0.04282026180065794
1.4522432497395292,0.04282026180065794,-0.003564431997717145
1.4522432497395292,0.04282026180065794,0.602076823905634
1.4522432497395292,-0.003564431997717145,0.602076823905634
0.999430441979556,-0.5439116258881697,0.8656883631619495
0.999430441979556,-0.5439116258881697,-1.1242554860291274
0.999430441979556,-0.5439116258881697,-0.08140002941113521
0.999430441979556,-0.5439116258881697,-0.06949666494522436
0.999430441979556,-0.5439116258881697,0.04282026180065794
0.999430441979556,-0.5439116258881697,-0.003564431997717145
0.999430441979556,-0.5439116258881697,0.602076823905634
0.999430441979556,0.8656883631619495,-1.1242554860291274
0.999430441979556,0.8656883631619495,-0.08140002941113521
0.999430441979556,0.8656883631619495,-0.06949666494522436
0.999430441979556,0.8656883631619495,0.04282026180065794
0.999430441979556,0.8656883631619495,-0.003564431997717145
0.999430441979556,0.8656883631619495,0.602076823905634
0.999430441979556,-1.1242554860291274,-0.003564431997717145
0.999430441979556,-1.1242554860291274,0.602076823905634
0.999430441979556,-1.1242554860291274,-0.08140002941113521
0.999430441979556,-1.1242554860291274,-0.06949666494522436
0.999430441979556,-1.1242554860291274,0.04282026180065794
0.999430441979556,-0.08140002941113521,-0.003564431997717145
0.999430441979556,-0.08140002941113521,0.602076823905634
0.999430441979556,-0.08140002941113521,-0.06949666494522436
0.999430441979556,-0.08140002941113521,0.04282026180065794
0.999430441979556,-0.06949666494522436,-0.003564431997717145
0.999430441979556,-0.06949666494522436,0.602076823905634
0.999430441979556,-0.06949666494522436,0.04282026180065794
0.999430441979556,0.04282026180065794,-0.003564431997717145
0.999430441979556,0.04282026180065794,0.602076823905634
0.999430441979556,-0.003564431997717145,0.602076823905634
-0.5439116258881697,0.8656883631619495,-1.1242554860291274
-0.5439116258881697,0.8656883631619495,-0.08140002941113521
-0.5439116258881697,0.8656883631619495,-0.06949666494522436
-0.5439116258881697,0.8656883631619495,0.04282026180065794
-0.5439116258881697,0.8656883631619495,-0.003564431997717145
-0.5439116258881697,0.8656883631619495,0.602076823905634
-0.5439116258881697,-1.1242554860291274,-0.003564431997717145
-0.5439116258881697,-1.1242554860291274,0.602076823905634
-0.5439116258881697,-1.1242554860291274,-0.08140002941113521
-0.5439116258881697,-1.1242554860291274,-0.06949666494522436
-0.5439116258881697,-1.1242554860291274,0.04282026180065794
-0.5439116258881697,-0.08140002941113521,-0.003564431997717145
-0.5439116258881697,-0.08140002941113521,0.602076823905634
-0.5439116258881697,-0.08140002941113521,-0.06949666494522436
-0.5439116258881697,-0.08140002941113521,0.04282026180065794
-0.5439116258881697,-0.06949666494522436,-0.003564431997717145
-0.5439116258881697,-0.06949666494522436,0.602076823905634
-0.5439116258881697,-0.06949666494522436,0.04282026180065794
-0.5439116258881697,0.04282026180065794,-0.003564431997717145
-0.5439116258881697,0.04282026180065794,0.602076823905634
-0.5439116258881697,-0.003564431997717145,0.602076823905634
0.8656883631619495,-1.1242554860291274,-0.003564431997717145
0.8656883631619495,-1.1242554860291274,0.602076823905634
0.8656883631619495,-1.1242554860291274,-0.08140002941113521
0.8656883631619495,-1.1242554860291274,-0.06949666494522436
0.8656883631619495,-1.1242554860291274,0.04282026180065794
0.8656883631619495,-0.08140002941113521,-0.003564431997717145
0.8656883631619495,-0.08140002941113521,0.602076823905634
0.8656883631619495,-0.08140002941113521,-0.06949666494522436
0.8656883631619495,-0.08140002941113521,0.04282026180065794
0.8656883631619495,-0.06949666494522436,-0.003564431997717145
0.8656883631619495,-0.06949666494522436,0.602076823905634
0.8656883631619495,-0.06949666494522436,0.04282026180065794
0.8656883631619495,0.04282026180065794,-0.003564431997717145
0.8656883631619495,0.04282026180065794,0.602076823905634
0.8656883631619495,-0.003564431997717145,0.602076823905634
-1.1242554860291274,-0.003564431997717145,0.602076823905634
-1.1242554860291274,-0.08140002941113521,-0.003564431997717145
-1.1242554860291274,-0.08140002941113521,0.602076823905634
-1.1242554860291274,-0.08140002941113521,-0.06949666494522436
-1.1242554860291274,-0.08140002941113521,0.04282026180065794
-1.1242554860291274,-0.06949666494522436,-0.003564431997717145
-1.1242554860291274,-0.06949666494522436,0.602076823905634
-1.1242554860291274,-0.06949666494522436,0.04282026180065794
-1.1242554860291274,0.04282026180065794,-0.003564431997717145
-1.1242554860291274,0.04282026180065794,0.602076823905634
-0.08140002941113521,-0.003564431997717145,0.602076823905634
-0.08140002941113521,-0.06949666494522436,-0.003564431997717145
-0.08140002941113521,-0.06949666494522436,0.602076823905634
-0.08140002941113521,-0.06949666494522436,0.04282026180065794
-0.08140002941113521,0.04282026180065794,-0.003564431997717145
-0.08140002941113521,0.04282026180065794,0.602076823905634
-0.06949666494522436,-0.003564431997717145,0.602076823905634
-0.06949666494522436,0.04282026180065794,-0.003564431997717145
-0.06949666494522436,0.04282026180065794,0.602076823905634
0.04282026180065794,-0.003564431997717145,0.602076823905634
