0,1,2
-0.306503295450285,-0.5102703875434345,1.6361717923391375
-0.306503295450285,-0.5102703875434345,-1.1102679892715461
-0.306503295450285,-0.5102703875434345,-0.7304215809838109
-0.306503295450285,-0.5102703875434345,0.9636466226225485
-0.306503295450285,-0.5102703875434345,1.4892897872360502
-0.306503295450285,-0.5102703875434345,-1.1044549104951429
-0.306503295450285,-0.5102703875434345,2.0332953636993882
-0.306503295450285,-0.5102703875434345,-0.38955933680451627
-0.306503295450285,1.6361717923391375,-1.1102679892715461
-0.306503295450285,1.6361717923391375,-0.7304215809838109
-0.306503295450285,1.6361717923391375,0.9636466226225485
-0.306503295450285,1.6361717923391375,1.4892897872360502
-0.306503295450285,1.6361717923391375,-1.1044549104951429
-0.306503295450285,1.6361717923391375,2.0332953636993882
-0.306503295450285,1.6361717923391375,-0.38955933680451627
-0.306503295450285,-1.1102679892715461,-0.7304215809838109
-0.306503295450285,-1.1102679892715461,0.9636466226225485
-0.306503295450285,-1.1102679892715461,1.4892897872360502
-0.306503295450285,-1.1102679892715461,-1.1044549104951429
-0.306503295450285,-1.1102679892715461,2.0332953636993882
-0.306503295450285,-1.1102679892715461,-0.38955933680451627
-0.306503295450285,-0.7304215809838109,2.0332953636993882
-0.306503295450285,-0.7304215809838109,-0.38955933680451627
-0.306503295450285,-0.7304215809838109,0.9636466226225485
-0.306503295450285,-0.7304215809838109,1.4892897872360502
-0.306503295450285,-0.7304215809838109,-1.1044549104951429
-0.306503295450285,0.9636466226225485,2.0332953636993882
-0.306503295450285,0.9636466226225485,-0.38955933680451627
-0.306503295450285,0.9636466226225485,1.4892897872360502
-0.306503295450285,0.9636466226225485,-1.1044549104951429
-0.306503295450285,1.4892897872360502,2.0332953636993882
-0.306503295450285,1.4892897872360502,-0.38955933680451627
-0.306503295450285,1.4892897872360502,-1.1044549104951429
-0.306503295450285,-1.1044549104951429,2.0332953636993882
-0.306503295450285,-1.1044549104951429,-0.38955933680451627
-0.306503295450285,2.0332953636993882,-0.38955933680451627
-0.5102703875434345,1.6361717923391375,-1.1102679892715461
-0.5102703875434345,1.6361717923391375,-0.7304215809838109
-0.5102703875434345,1.6361717923391375,0.9636466226225485
-0.5102703875434345,1.6361717923391375,1.4892897872360502
-0.5102703875434345,1.6361717923391375,-1.1044549104951429
-0.5102703875434345,1.6361717923391375,2.0332953636993882
-0.5102703875434345,1.6361717923391375,-0.38955933680451627
-0.5102703875434345,-1.1102679892715461,-0.7304215809838109
-0.5102703875434345,-1.1102679892715461,0.9636466226225485
-0.5102703875434345,-1.1102679892715461,1.4892897872360502
-0.5102703875434345,-1.1102679892715461,-1.1044549104951429
-0.5102703875434345,-1.1102679892715461,2.0332953636993882
-0.5102703875434345,-1.1102679892715461,-0.38955933680451627
-0.5102703875434345,-0.7304215809838109,2.0332953636993882
-0.5102703875434345,-0.7304215809838109,-0.38955933680451627
-0.5102703875434345,-0.7304215809838109,0.9636466226225485
-0.5102703875434345,-0.7304215809838109,1.4892897872360502
-0.5102703875434345,-0.7304215809838109,-1.1044549104951429
-0.5102703875434345,0.9636466226225485,2.0332953636993882
-0.5102703875434345,0.9636466226225485,-0.38955933680451627
-0.5102703875434345,0.9636466226225485,1.4892897872360502
-0.5102703875434345,0.9636466226225485,-1.1044549104951429
-0.5102703875434345,1.4892897872360502,2.0332953636993882
-0.5102703875434345,1.4892897872360502,-0.38955933680451627
-0.5102703875434345,1.4892897872360502,-1.1044549104951429
-0.5102703875434345,-1.1044549104951429,2.0332953636993882
-0.5102703875434345,-1.1044549104951429,-0.38955933680451627
-0.5102703875434345,2.0332953636993882,-0.38955933680451627
1.6361717923391375,-1.1102679892715461,-0.7304215809838109
1.6361717923391375,-1.1102679892715461,0.9636466226225485
1.6361717923391375,-1.1102679892715461,1.4892897872360502
1.6361717923391375,-1.1102679892715461,-1.1044549104951429
1.6361717923391375,-1.1102679892715461,2.0332953636993882
1.6361717923391375,-1.1102679892715461,-0.38955933680451627
1.6361717923391375,-0.7304215809838109,2.0332953636993882
1.6361717923391375,-0.7304215809838109,-0.38955933680451627
1.6361717923391375,-0.7304215809838109,0.9636466226225485
1.6361717923391375,-0.7304215809838109,1.4892897872360502
1.6361717923391375,-0.7304215809838109,-1.1044549104951429
1.6361717923391375,0.9636466226225485,2.0332953636993882
1.6361717923391375,0.9636466226225485,-0.38955933680451627
1.6361717923391375,0.9636466226225485,1.4892897872360502
1.6361717923391375,0.9636466226225485,-1.1044549104951429
1.6361717923391375,1.4892897872360502,2.0332953636993882
1.6361717923391375,1.4892897872360502,-0.38955933680451627
1.6361717923391375,1.4892897872360502,-1.1044549104951429
1.6361717923391375,-1.1044549104951429,2.0332953636993882
1.6361717923391375,-1.1044549104951429,-0.38955933680451627
1.6361717923391375,2.0332953636993882,-0.38955933680451627
-1.1102679892715461,-0.7304215809838109,2.0332953636993882
-1.1102679892715461,-0.7304215809838109,-0.38955933680451627
-1.1102679892715461,-0.7304215809838109,0.9636466226225485
-1.1102679892715461,-0.7304215809838109,1.4892897872360502
-1.1102679892715461,-0.7304215809838109,-1.1044549104951429
-1.1102679892715461,0.9636466226225485,2.0332953636993882
-1.1102679892715461,0.9636466226225485,-0.38955933680451627
-1.1102679892715461,0.9636466226225485,1.4892897872360502
-1.1102679892715461,0.9636466226225485,-1.1044549104951429
-1.1102679892715461,1.4892897872360502,2.0332953636993882
-1.1102679892715461,1.4892897872360502,-0.38955933680451627
-1.1102679892715461,1.4892897872360502,-1.1044549104951429
-1.1102679892715461,-1.1044549104951429,2.0332953636993882
-1.1102679892715461,-1.1044549104951429,-0.38955933680451627
-1.1102679892715461,2.0332953636993882,-0.38955933680451627
-0.7304215809838109,2.0332953636993882,-0.38955933680451627
-0.7304215809838109,0.9636466226225485,2.0332953636993882
-0.7304215809838109,0.9636466226225485,-0.38955933680451627
-0.7304215809838109,0.9636466226225485,1.4892897872360502
-0.7304215809838109,0.9636466226225485,-1.1044549104951429
-0.7304215809838109,1.4892897872360502,2.0332953636993882
-0.7304215809838109,1.4892897872360502,-0.38955933680451627
-0.7304215809838109,1.4892897872360502,-1.1044549104951429
-0.7304215809838109,-1.1044549104951429,2.0332953636993882
-0.7304215809838109,-1.1044549104951429,-0.38955933680451627
0.9636466226225485,2.0332953636993882,-0.38955933680451627
0.9636466226225485,1.4892897872360502,2.0332953636993882
0.9636466226225485,1.4892897872360502,-0.38955933680451627
0.9636466226225485,1.4892897872360502,-1.1044549104951429
0.9636466226225485,-1.1044549104951429,2.0332953636993882
0.9636466226225485,-1.1044549104951429,-0.38955933680451627
1.4892897872360502,2.0332953636993882,-0.38955933680451627
1.4892897872360502,-1.1044549104951429,2.0332953636993882
1.4892897872360502,-1.1044549104951429,-0.38955933680451627
-1.1044549104951429,2.0332953636993882,-0.38955933680451627
