0,1,2
-0.36523188516898414,0.0631781309991356,0.4256863191655606
-0.36523188516898414,0.0631781309991356,0.2977399899301598
-0.36523188516898414,0.0631781309991356,-0.5248349797719695
-0.36523188516898414,0.0631781309991356,-0.6019000805948115
-0.36523188516898414,0.0631781309991356,2.0536493615398923
-0.36523188516898414,0.0631781309991356,-0.23061577804527128
-0.36523188516898414,0.0631781309991356,1.5605095711313335
-0.36523188516898414,0.0631781309991356,-0.4001983746676016
-0.36523188516898414,0.4256863191655606,0.2977399899301598
-0.36523188516898414,0.4256863191655606,-0.5248349797719695
-0.36523188516898414,0.4256863191655606,-0.6019000805948115
-0.36523188516898414,0.4256863191655606,2.0536493615398923
-0.36523188516898414,0.4256863191655606,-0.23061577804527128
-0.36523188516898414,0.4256863191655606,1.5605095711313335
-0.36523188516898414,0.4256863191655606,-0.4001983746676016
-0.36523188516898414,0.2977399899301598,-0.5248349797719695
-0.36523188516898414,0.2977399899301598,-0.6019000805948115
-0.36523188516898414,0.2977399899301598,2.0536493615398923
-0.36523188516898414,0.2977399899301598,-0.23061577804527128
-0.36523188516898414,0.2977399899301598,1.5605095711313335
-0.36523188516898414,0.2977399899301598,-0.4001983746676016
-0.36523188516898414,-0.5248349797719695,1.5605095711313335
-0.36523188516898414,-0.5248349797719695,-0.4001983746676016
-0.36523188516898414,-0.5248349797719695,-0.6019000805948115
-0.36523188516898414,-0.5248349797719695,2.0536493615398923
-0.36523188516898414,-0.5248349797719695,-0.23061577804527128
-0.36523188516898414,-0.6019000805948115,1.5605095711313335
-0.36523188516898414,-0.6019000805948115,-0.4001983746676016
-0.36523188516898414,-0.6019000805948115,2.0536493615398923
-0.36523188516898414,-0.6019000805948115,-0.23061577804527128
-0.36523188516898414,2.0536493615398923,1.5605095711313335
-0.36523188516898414,2.0536493615398923,-0.4001983746676016
-0.36523188516898414,2.0536493615398923,-0.23061577804527128
-0.36523188516898414,-0.23061577804527128,1.5605095711313335
-0.36523188516898414,-0.23061577804527128,-0.4001983746676016
-0.36523188516898414,1.5605095711313335,-0.4001983746676016
0.0631781309991356,0.4256863191655606,0.2977399899301598
0.0631781309991356,0.4256863191655606,-0.5248349797719695
0.0631781309991356,0.4256863191655606,-0.6019000805948115
0.0631781309991356,0.4256863191655606,2.0536493615398923
0.0631781309991356,0.4256863191655606,-0.23061577804527128
0.0631781309991356,0.4256863191655606,1.5605095711313335
0.0631781309991356,0.4256863191655606,-0.4001983746676016
0.0631781309991356,0.2977399899301598,-0.5248349797719695
0.0631781309991356,0.2977399899301598,-0.6019000805948115
0.0631781309991356,0.2977399899301598,2.0536493615398923
0.0631781309991356,0.2977399899301598,-0.23061577804527128
0.0631781309991356,0.2977399899301598,1.5605095711313335
0.0631781309991356,0.2977399899301598,-0.4001983746676016
0.0631781309991356,-0.5248349797719695,1.5605095711313335
0.0631781309991356,-0.5248349797719695,-0.4001983746676016
0.0631781309991356,-0.5248349797719695,-0.6019000805948115
0.0631781309991356,-0.5248349797719695,2.0536493615398923
0.0631781309991356,-0.5248349797719695,-0.23061577804527128
0.0631781309991356,-0.6019000805948115,1.5605095711313335
0.0631781309991356,-0.6019000805948115,-0.4001983746676016
0.0631781309991356,-0.6019000805948115,2.0536493615398923
0.0631781309991356,-0.6019000805948115,-0.23061577804527128
0.0631781309991356,2.0536493615398923,1.5605095711313335
0.0631781309991356,2.0536493615398923,-0.4001983746676016
0.0631781309991356,2.0536493615398923,-0.23061577804527128
0.0631781309991356,-0.23061577804527128,1.5605095711313335
0.0631781309991356,-0.23061577804527128,-0.4001983746676016
0.0631781309991356,1.5605095711313335,-0.4001983746676016
0.4256863191655606,0.2977399899301598,-0.5248349797719695
0.4256863191655606,0.2977399899301598,-0.6019000805948115
0.4256863191655606,0.2977399899301598,2.0536493615398923
0.4256863191655606,0.2977399899301598,-0.23061577804527128
0.4256863191655606,0.2977399899301598,1.5605095711313335
0.4256863191655606,0.2977399899301598,-0.4001983746676016
0.4256863191655606,-0.5248349797719695,1.5605095711313335
0.4256863191655606,-0.5248349797719695,-0.4001983746676016
0.4256863191655606,-0.5248349797719695,-0.6019000805948115
0.4256863191655606,-0.5248349797719695,2.0536493615398923
0.4256863191655606,-0.5248349797719695,-0.23061577804527128
0.4256863191655606,-0.6019000805948115,1.5605095711313335
0.4256863191655606,-0.6019000805948115,-0.4001983746676016
0.4256863191655606,-0.6019000805948115,2.0536493615398923
0.4256863191655606,-0.6019000805948115,-0.23061577804527128
0.4256863191655606,2.0536493615398923,1.5605095711313335
0.4256863191655606,2.0536493615398923,-0.4001983746676016
0.4256863191655606,2.0536493615398923,-0.23061577804527128
0.4256863191655606,-0.23061577804527128,1.5605095711313335
0.4256863191655606,-0.23061577804527128,-0.4001983746676016
0.4256863191655606,1.5605095711313335,-0.4001983746676016
0.2977399899301598,-0.5248349797719695,1.5605095711313335
0.2977399899301598,-0.5248349797719695,-0.4001983746676016
0.2977399899301598,-0.5248349797719695,-0.6019000805948115
0.2977399899301598,-0.5248349797719695,2.0536493615398923
0.2977399899301598,-0.5248349797719695,-0.23061577804527128
0.2977399899301598,-0.6019000805948115,1.5605095711313335
0.2977399899301598,-0.6019000805948115,-0.4001983746676016
0.2977399899301598,-0.6019000805948115,2.0536493615398923
0.2977399899301598,-0.6019000805948115,-0.23061577804527128
0.2977399899301598,2.0536493615398923,1.5605095711313335
0.2977399899301598,2.0536493615398923,-0.4001983746676016
0.2977399899301598,2.0536493615398923,-0.23061577804527128
0.2977399899301598,-0.23061577804527128,1.5605095711313335
0.2977399899301598,-0.23061577804527128,-0.4001983746676016
0.2977399899301598,1.5605095711313335,-0.4001983746676016
-0.5248349797719695,1.5605095711313335,-0.4001983746676016
-0.5248349797719695,-0.6019000805948115,1.5605095711313335
-0.5248349797719695,-0.6019000805948115,-0.4001983746676016
-0.5248349797719695,-0.6019000805948115,2.0536493615398923
-0.5248349797719695,-0.6019000805948115,-0.23061577804527128
-0.5248349797719695,2.0536493615398923,1.5605095711313335
-0.5248349797719695,2.0536493615398923,-0.4001983746676016
-0.5248349797719695,2.0536493615398923,-0.23061577804527128
-0.5248349797719695,-0.23061577804527128,1.5605095711313335
-0.5248349797719695,-0.23061577804527128,-0.4001983746676016
-0.6019000805948115,1.5605095711313335,-0.4001983746676016
-0.6019000805948115,2.0536493615398923,1.5605095711313335
-0.6019000805948115,2.0536493615398923,-0.4001983746676016
-0.6019000805948115,2.0536493615398923,-0.23061577804527128
-0.6019000805948115,-0.23061577804527128,1.5605095711313335
-0.6019000805948115,-0.23061577804527128,-0.4001983746676016
2.0536493615398923,1.5605095711313335,-0.4001983746676016
2.0536493615398923,-0.23061577804527128,1.5605095711313335
2.0536493615398923,-0.23061577804527128,-0.4001983746676016
-0.23061577804527128,1.5605095711313335,-0.4001983746676016
