0,1,2
-0.4520452531264421,-0.7269595705146839,0.2446457145746317
-0.4520452531264421,-0.7269595705146839,0.5782382511290997
-0.4520452531264421,-0.7269595705146839,1.1121553565974918
-0.4520452531264421,-0.7269595705146839,0.8495124135862097
-0.4520452531264421,-0.7269595705146839,0.7644149320214597
-0.4520452531264421,-0.7269595705146839,0.07054228447664586
-0.4520452531264421,-0.7269595705146839,0.7392213567596316
-0.4520452531264421,-0.7269595705146839,-1.4870347682504037
-0.4520452531264421,0.2446457145746317,0.5782382511290997
-0.4520452531264421,0.2446457145746317,1.1121553565974918
-0.4520452531264421,0.2446457145746317,0.8495124135862097
-0.4520452531264421,0.2446457145746317,0.7644149320214597
-0.4520452531264421,0.2446457145746317,0.07054228447664586
-0.4520452531264421,0.2446457145746317,0.7392213567596316
-0.4520452531264421,0.2446457145746317,-1.4870347682504037
-0.4520452531264421,0.5782382511290997,1.1121553565974918
-0.4520452531264421,0.5782382511290997,0.8495124135862097
-0.4520452531264421,0.5782382511290997,0.7644149320214597
-0.4520452531264421,0.5782382511290997,0.07054228447664586
-0.4520452531264421,0.5782382511290997,0.7392213567596316
-0.4520452531264421,0.5782382511290997,-1.4870347682504037
-0.4520452531264421,1.1121553565974918,0.7392213567596316
-0.4520452531264421,1.1121553565974918,-1.4870347682504037
-0.4520452531264421,1.1121553565974918,0.8495124135862097
-0.4520452531264421,1.1121553565974918,0.7644149320214597
-0.4520452531264421,1.1121553565974918,0.07054228447664586
-0.4520452531264421,0.8495124135862097,0.7392213567596316
-0.4520452531264421,0.8495124135862097,-1.4870347682504037
-0.4520452531264421,0.8495124135862097,0.7644149320214597
-0.4520452531264421,0.8495124135862097,0.07054228447664586
-0.4520452531264421,0.7644149320214597,0.7392213567596316
-0.4520452531264421,0.7644149320214597,-1.4870347682504037
-0.4520452531264421,0.7644149320214597,0.07054228447664586
-0.4520452531264421,0.07054228447664586,0.7392213567596316
-0.4520452531264421,0.07054228447664586,-1.4870347682504037
-0.4520452531264421,0.7392213567596316,-1.4870347682504037
-0.7269595705146839,0.2446457145746317,0.5782382511290997
-0.7269595705146839,0.2446457145746317,1.1121553565974918
-0.7269595705146839,0.2446457145746317,0.8495124135862097
-0.7269595705146839,0.2446457145746317,0.7644149320214597
-0.7269595705146839,0.2446457145746317,0.07054228447664586
-0.7269595705146839,0.2446457145746317,0.7392213567596316
-0.7269595705146839,0.2446457145746317,-1.4870347682504037
-0.7269595705146839,0.5782382511290997,1.1121553565974918
-0.7269595705146839,0.5782382511290997,0.8495124135862097
-0.7269595705146839,0.5782382511290997,0.7644149320214597
-0.7269595705146839,0.5782382511290997,0.07054228447664586
-0.7269595705146839,0.5782382511290997,0.7392213567596316
-0.7269595705146839,0.5782382511290997,-1.4870347682504037
-0.7269595705146839,1.1121553565974918,0.7392213567596316
-0.7269595705146839,1.1121553565974918,-1.4870347682504037
-0.7269595705146839,1.1121553565974918,0.8495124135862097
-0.7269595705146839,1.1121553565974918,0.7644149320214597
-0.7269595705146839,1.1121553565974918,0.07054228447664586
-0.7269595705146839,0.8495124135862097,0.7392213567596316
-0.7269595705146839,0.8495124135862097,-1.4870347682504037
-0.7269595705146839,0.8495124135862097,0.7644149320214597
-0.7269595705146839,0.8495124135862097,0.07054228447664586
-0.7269595705146839,0.7644149320214597,0.7392213567596316
-0.7269595705146839,0.7644149320214597,-1.4870347682504037
-0.7269595705146839,0.7644149320214597,0.07054228447664586
-0.7269595705146839,0.07054228447664586,0.7392213567596316
-0.7269595705146839,0.07054228447664586,-1.4870347682504037
-0.7269595705146839,0.7392213567596316,-1.4870347682504037
0.2446457145746317,0.5782382511290997,1.1121553565974918
0.2446457145746317,0.5782382511290997,0.8495124135862097
0.2446457145746317,0.5782382511290997,0.7644149320214597
0.2446457145746317,0.5782382511290997,0.07054228447664586
0.2446457145746317,0.5782382511290997,0.7392213567596316
0.2446457145746317,0.5782382511290997,-1.4870347682504037
0.2446457145746317,1.1121553565974918,0.7392213567596316
0.2446457145746317,1.1121553565974918,-1.4870347682504037
0.2446457145746317,1.1121553565974918,0.8495124135862097
0.2446457145746317,1.1121553565974918,0.7644149320214597
0.2446457145746317,1.1121553565974918,0.07054228447664586
0.2446457145746317,0.8495124135862097,0.7392213567596316
0.2446457145746317,0.8495124135862097,-1.4870347682504037
0.2446457145746317,0.8495124135862097,0.7644149320214597
0.2446457145746317,0.8495124135862097,0.07054228447664586
0.2446457145746317,0.7644149320214597,0.7392213567596316
0.2446457145746317,0.7644149320214597,-1.4870347682504037
0.2446457145746317,0.7644149320214597,0.07054228447664586
0.2446457145746317,0.07054228447664586,0.7392213567596316
0.2446457145746317,0.07054228447664586,-1.4870347682504037
0.2446457145746317,0.7392213567596316,-1.4870347682504037
0.5782382511290997,1.1121553565974918,0.7392213567596316
0.5782382511290997,1.1121553565974918,-1.4870347682504037
0.5782382511290997,1.1121553565974918,0.8495124135862097
0.5782382511290997,1.1121553565974918,0.7644149320214597
0.5782382511290997,1.1121553565974918,0.07054228447664586
0.5782382511290997,0.8495124135862097,0.7392213567596316
0.5782382511290997,0.8495124135862097,-1.4870347682504037
0.5782382511290997,0.8495124135862097,0.7644149320214597
0.5782382511290997,0.8495124135862097,0.07054228447664586
0.5782382511290997,0.7644149320214597,0.7392213567596316
0.5782382511290997,0.7644149320214597,-1.4870347682504037
0.5782382511290997,0.7644149320214597,0.07054228447664586
0.5782382511290997,0.07054228447664586,0.7392213567596316
0.5782382511290997,0.07054228447664586,-1.4870347682504037
0.5782382511290997,0.7392213567596316,-1.4870347682504037
1.1121553565974918,0.7392213567596316,-1.4870347682504037
1.1121553565974918,0.8495124135862097,0.7392213567596316
1.1121553565974918,0.8495124135862097,-1.4870347682504037
1.1121553565974918,0.8495124135862097,0.7644149320214597
1.1121553565974918,0.8495124135862097,0.07054228447664586
1.1121553565974918,0.7644149320214597,0.7392213567596316
1.1121553565974918,0.7644149320214597,-1.4870347682504037
1.1121553565974918,0.7644149320214597,0.07054228447664586
1.1121553565974918,0.07054228447664586,0.7392213567596316
1.1121553565974918,0.07054228447664586,-1.4870347682504037
0.8495124135862097,0.7392213567596316,-1.4870347682504037
0.8495124135862097,0.7644149320214597,0.7392213567596316
0.8495124135862097,0.7644149320214597,-1.4870347682504037
0.8495124135862097,0.7644149320214597,0.07054228447664586
0.8495124135862097,0.07054228447664586,0.7392213567596316
0.8495124135862097,0.07054228447664586,-1.4870347682504037
0.7644149320214597,0.7392213567596316,-1.4870347682504037
0.7644149320214597,0.07054228447664586,0.7392213567596316
0.7644149320214597,0.07054228447664586,-1.4870347682504037
0.07054228447664586,0.7392213567596316,-1.4870347682504037
