0,1,2
0.261659514283017,-1.0647855719500168,0.9130856412388629
0.261659514283017,-1.0647855719500168,0.42449671153317714
0.261659514283017,-1.0647855719500168,-0.33896979690972096
0.261659514283017,-1.0647855719500168,-0.8953545433401747
0.261659514283017,-1.0647855719500168,-1.257549803549964
0.261659514283017,-1.0647855719500168,-0.17795851819283776
0.261659514283017,-1.0647855719500168,0.05768582419091474
0.261659514283017,-1.0647855719500168,-0.5435520302824718
0.261659514283017,0.9130856412388629,0.42449671153317714
0.261659514283017,0.9130856412388629,-0.33896979690972096
0.261659514283017,0.9130856412388629,-0.8953545433401747
0.261659514283017,0.9130856412388629,-1.257549803549964
0.261659514283017,0.9130856412388629,-0.17795851819283776
0.261659514283017,0.9130856412388629,0.05768582419091474
0.261659514283017,0.9130856412388629,-0.5435520302824718
0.261659514283017,0.42449671153317714,-0.33896979690972096
0.261659514283017,0.42449671153317714,-0.8953545433401747
0.261659514283017,0.42449671153317714,-1.257549803549964
0.261659514283017,0.42449671153317714,-0.17795851819283776
0.261659514283017,0.42449671153317714,0.05768582419091474
0.261659514283017,0.42449671153317714,-0.5435520302824718
0.261659514283017,-0.33896979690972096,0.05768582419091474
0.261659514283017,-0.33896979690972096,-0.5435520302824718
0.261659514283017,-0.33896979690972096,-0.8953545433401747
0.261659514283017,-0.33896979690972096,-1.257549803549964
0.261659514283017,-0.33896979690972096,-0.17795851819283776
0.261659514283017,-0.8953545433401747,0.05768582419091474
0.261659514283017,-0.8953545433401747,-0.5435520302824718
0.261659514283017,-0.8953545433401747,-1.257549803549964
0.261659514283017,-0.8953545433401747,-0.17795851819283776
0.261659514283017,-1.257549803549964,0.05768582419091474
0.261659514283017,-1.257549803549964,-0.5435520302824718
0.261659514283017,-1.257549803549964,-0.17795851819283776
0.261659514283017,-0.17795851819283776,0.05768582419091474
0.261659514283017,-0.17795851819283776,-0.5435520302824718
0.261659514283017,0.05768582419091474,-0.5435520302824718
-1.0647855719500168,0.9130856412388629,0.42449671153317714
-1.0647855719500168,0.9130856412388629,-0.33896979690972096
-1.0647855719500168,0.9130856412388629,-0.8953545433401747
-1.0647855719500168,0.9130856412388629,-1.257549803549964
-1.0647855719500168,0.9130856412388629,-0.17795851819283776
-1.0647855719500168,0.9130856412388629,0.05768582419091474
-1.0647855719500168,0.9130856412388629,-0.5435520302824718
-1.0647855719500168,0.42449671153317714,-0.33896979690972096
-1.0647855719500168,0.42449671153317714,-0.8953545433401747
-1.0647855719500168,0.42449671153317714,-1.257549803549964
-1.0647855719500168,0.42449671153317714,-0.17795851819283776
-1.0647855719500168,0.42449671153317714,0.05768582419091474
-1.0647855719500168,0.42449671153317714,-0.5435520302824718
-1.0647855719500168,-0.33896979690972096,0.05768582419091474
-1.0647855719500168,-0.33896979690972096,-0.5435520302824718
-1.0647855719500168,-0.33896979690972096,-0.8953545433401747
-1.0647855719500168,-0.33896979690972096,-1.257549803549964
-1.0647855719500168,-0.33896979690972096,-0.17795851819283776
-1.0647855719500168,-0.8953545433401747,0.05768582419091474
-1.0647855719500168,-0.8953545433401747,-0.5435520302824718
-1.0647855719500168,-0.8953545433401747,-1.257549803549964
-1.0647855719500168,-0.8953545433401747,-0.17795851819283776
-1.0647855719500168,-1.257549803549964,0.05768582419091474
-1.0647855719500168,-1.257549803549964,-0.5435520302824718
-1.0647855719500168,-1.257549803549964,-0.17795851819283776
-1.0647855719500168,-0.17795851819283776,0.05768582419091474
-1.0647855719500168,-0.17795851819283776,-0.5435520302824718
-1.0647855719500168,0.05768582419091474,-0.5435520302824718
0.9130856412388629,0.42449671153317714,-0.33896979690972096
0.9130856412388629,0.42449671153317714,-0.8953545433401747
0.9130856412388629,0.42449671153317714,-1.257549803549964
0.9130856412388629,0.42449671153317714,-0.17795851819283776
0.9130856412388629,0.42449671153317714,0.05768582419091474
0.9130856412388629,0.42449671153317714,-0.5435520302824718
0.9130856412388629,-0.33896979690972096,0.05768582419091474
0.9130856412388629,-0.33896979690972096,-0.5435520302824718
0.9130856412388629,-0.33896979690972096,-0.8953545433401747
0.9130856412388629,-0.33896979690972096,-1.257549803549964
0.9130856412388629,-0.33896979690972096,-0.17795851819283776
0.9130856412388629,-0.8953545433401747,0.05768582419091474
0.9130856412388629,-0.8953545433401747,-0.5435520302824718
0.9130856412388629,-0.8953545433401747,-1.257549803549964
0.9130856412388629,-0.8953545433401747,-0.17795851819283776
0.9130856412388629,-1.257549803549964,0.05768582419091474
0.9130856412388629,-1.257549803549964,-0.5435520302824718
0.9130856412388629,-1.257549803549964,-0.17795851819283776
0.9130856412388629,-0.17795851819283776,0.05768582419091474
0.9130856412388629,-0.17795851819283776,-0.5435520302824718
0.9130856412388629,0.05768582419091474,-0.5435520302824718
0.42449671153317714,-0.33896979690972096,0.05768582419091474
0.42449671153317714,-0.33896979690972096,-0.5435520302824718
0.42449671153317714,-0.33896979690972096,-0.8953545433401747
0.42449671153317714,-0.33896979690972096,-1.257549803549964
0.42449671153317714,-0.33896979690972096,-0.17795851819283776
0.42449671153317714,-0.8953545433401747,0.05768582419091474
0.42449671153317714,-0.8953545433401747,-0.5435520302824718
0.42449671153317714,-0.8953545433401747,-1.257549803549964
0.42449671153317714,-0.8953545433401747,-0.17795851819283776
0.42449671153317714,-1.257549803549964,0.05768582419091474
0.42449671153317714,-1.257549803549964,-0.5435520302824718
0.42449671153317714,-1.257549803549964,-0.17795851819283776
0.42449671153317714,-0.17795851819283776,0.05768582419091474
0.42449671153317714,-0.17795851819283776,-0.5435520302824718
0.42449671153317714,0.05768582419091474,-0.5435520302824718
-0.33896979690972096,0.05768582419091474,-0.5435520302824718
-0.33896979690972096,-0.8953545433401747,0.05768582419091474
-0.33896979690972096,-0.8953545433401747,-0.5435520302824718
-0.33896979690972096,-0.8953545433401747,-1.257549803549964
-0.33896979690972096,-0.8953545433401747,-0.17795851819283776
-0.33896979690972096,-1.257549803549964,0.05768582419091474
-0.33896979690972096,-1.257549803549964,-0.5435520302824718
-0.33896979690972096,-1.257549803549964,-0.17795851819283776
-0.33896979690972096,-0.17795851819283776,0.05768582419091474
-0.33896979690972096,-0.17795851819283776,-0.5435520302824718
-0.8953545433401747,0.05768582419091474,-0.5435520302824718
-0.8953545433401747,-1.257549803549964,0.05768582419091474
-0.8953545433401747,-1.257549803549964,-0.5435520302824718
-0.8953545433401747,-1.257549803549964,-0.17795851819283776
-0.8953545433401747,-0.17795851819283776,0.05768582419091474
-0.8953545433401747,-0.17795851819283776,-0.5435520302824718
-1.257549803549964,0.05768582419091474,-0.5435520302824718
-1.257549803549964,-0.17795851819283776,0.05768582419091474
-1.257549803549964,-0.17795851819283776,-0.5435520302824718
-0.17795851819283776,0.05768582419091474,-0.5435520302824718
