0,1,2
-0.5314244007483724,-0.27284166305804425,1.2386956312535915
-0.5314244007483724,-0.27284166305804425,-0.6465947505147634
-0.5314244007483724,-0.27284166305804425,2.050344515901803
-0.5314244007483724,-0.27284166305804425,-0.5773335132106352
-0.5314244007483724,-0.27284166305804425,1.487021896947519
-0.5314244007483724,-0.27284166305804425,0.5530848323103998
-0.5314244007483724,-0.27284166305804425,0.33071799590976947
-0.5314244007483724,-0.27284166305804425,-0.3876255664626069
-0.5314244007483724,1.2386956312535915,-0.6465947505147634
-0.5314244007483724,1.2386956312535915,2.050344515901803
-0.5314244007483724,1.2386956312535915,-0.5773335132106352
-0.5314244007483724,1.2386956312535915,1.487021896947519
-0.5314244007483724,1.2386956312535915,0.5530848323103998
-0.5314244007483724,1.2386956312535915,0.33071799590976947
-0.5314244007483724,1.2386956312535915,-0.3876255664626069
-0.5314244007483724,-0.6465947505147634,2.050344515901803
-0.5314244007483724,-0.6465947505147634,-0.5773335132106352
-0.5314244007483724,-0.6465947505147634,1.487021896947519
-0.5314244007483724,-0.6465947505147634,0.5530848323103998
-0.5314244007483724,-0.6465947505147634,0.33071799590976947
-0.5314244007483724,-0.6465947505147634,-0.3876255664626069
-0.5314244007483724,2.050344515901803,0.33071799590976947
-0.5314244007483724,2.050344515901803,-0.3876255664626069
-0.5314244007483724,2.050344515901803,-0.5773335132106352
-0.5314244007483724,2.050344515901803,1.487021896947519
-0.5314244007483724,2.050344515901803,0.5530848323103998
-0.5314244007483724,-0.5773335132106352,0.33071799590976947
-0.5314244007483724,-0.5773335132106352,-0.3876255664626069
-0.5314244007483724,-0.5773335132106352,1.487021896947519
-0.5314244007483724,-0.5773335132106352,0.5530848323103998
-0.5314244007483724,1.487021896947519,0.33071799590976947
-0.5314244007483724,1.487021896947519,-0.3876255664626069
-0.5314244007483724,1.487021896947519,0.5530848323103998
-0.5314244007483724,0.5530848323103998,0.33071799590976947
-0.5314244007483724,0.5530848323103998,-0.3876255664626069
-0.5314244007483724,0.33071799590976947,-0.3876255664626069
-0.27284166305804425,1.2386956312535915,-0.6465947505147634
-0.27284166305804425,1.2386956312535915,2.050344515901803
-0.27284166305804425,1.2386956312535915,-0.5773335132106352
-0.27284166305804425,1.2386956312535915,1.487021896947519
-0.27284166305804425,1.2386956312535915,0.5530848323103998
-0.27284166305804425,1.2386956312535915,0.33071799590976947
-0.27284166305804425,1.2386956312535915,-0.3876255664626069
-0.27284166305804425,-0.6465947505147634,2.050344515901803
-0.27284166305804425,-0.6465947505147634,-0.5773335132106352
-0.27284166305804425,-0.6465947505147634,1.487021896947519
-0.27284166305804425,-0.6465947505147634,0.5530848323103998
-0.27284166305804425,-0.6465947505147634,0.33071799590976947
-0.27284166305804425,-0.6465947505147634,-0.3876255664626069
-0.27284166305804425,2.050344515901803,0.33071799590976947
-0.27284166305804425,2.050344515901803,-0.3876255664626069
-0.27284166305804425,2.050344515901803,-0.5773335132106352
-0.27284166305804425,2.050344515901803,1.487021896947519
-0.27284166305804425,2.050344515901803,0.5530848323103998
-0.27284166305804425,-0.5773335132106352,0.33071799590976947
-0.27284166305804425,-0.5773335132106352,-0.3876255664626069
-0.27284166305804425,-0.5773335132106352,1.487021896947519
-0.27284166305804425,-0.5773335132106352,0.5530848323103998
-0.27284166305804425,1.487021896947519,0.33071799590976947
-0.27284166305804425,1.487021896947519,-0.3876255664626069
-0.27284166305804425,1.487021896947519,0.5530848323103998
-0.27284166305804425,0.5530848323103998,0.33071799590976947
-0.27284166305804425,0.5530848323103998,-0.3876255664626069
-0.27284166305804425,0.33071799590976947,-0.3876255664626069
1.2386956312535915,-0.6465947505147634,2.050344515901803
1.2386956312535915,-0.6465947505147634,-0.5773335132106352
1.2386956312535915,-0.6465947505147634,1.487021896947519
1.2386956312535915,-0.6465947505147634,0.5530848323103998
1.2386956312535915,-0.6465947505147634,0.33071799590976947
1.2386956312535915,-0.6465947505147634,-0.3876255664626069
1.2386956312535915,2.050344515901803,0.33071799590976947
1.2386956312535915,2.050344515901803,-0.3876255664626069
1.2386956312535915,2.050344515901803,-0.5773335132106352
1.2386956312535915,2.050344515901803,1.487021896947519
1.2386956312535915,2.050344515901803,0.5530848323103998
1.2386956312535915,-0.5773335132106352,0.33071799590976947
1.2386956312535915,-0.5773335132106352,-0.3876255664626069
1.2386956312535915,-0.5773335132106352,1.487021896947519
1.2386956312535915,-0.5773335132106352,0.5530848323103998
1.2386956312535915,1.487021896947519,0.33071799590976947
1.2386956312535915,1.487021896947519,-0.3876255664626069
1.2386956312535915,1.487021896947519,0.5530848323103998
1.2386956312535915,0.5530848323103998,0.33071799590976947
1.2386956312535915,0.5530848323103998,-0.3876255664626069
1.2386956312535915,0.33071799590976947,-0.3876255664626069
-0.6465947505147634,2.050344515901803,0.33071799590976947
-0.6465947505147634,2.050344515901803,-0.3876255664626069
-0.6465947505147634,2.050344515901803,-0.5773335132106352
-0.6465947505147634,2.050344515901803,1.487021896947519
-0.6465947505147634,2.050344515901803,0.5530848323103998
-0.6465947505147634,-0.5773335132106352,0.33071799590976947
-0.6465947505147634,-0.5773335132106352,-0.3876255664626069
-0.6465947505147634,-0.5773335132106352,1.487021896947519
-0.6465947505147634,-0.5773335132106352,0.5530848323103998
-0.6465947505147634,1.487021896947519,0.33071799590976947
-0.6465947505147634,1.487021896947519,-0.3876255664626069
-0.6465947505147634,1.487021896947519,0.5530848323103998
-0.6465947505147634,0.5530848323103998,0.33071799590976947
-0.6465947505147634,0.5530848323103998,-0.3876255664626069
-0.6465947505147634,0.33071799590976947,-0.3876255664626069
2.050344515901803,0.33071799590976947,-0.3876255664626069
2.050344515901803,-0.5773335132106352,0.33071799590976947
2.050344515901803,-0.5773335132106352,-0.3876255664626069
2.050344515901803,-0.5773335132106352,1.487021896947519
2.050344515901803,-0.5773335132106352,0.5530848323103998
2.050344515901803,1.487021896947519,0.33071799590976947
2.050344515901803,1.487021896947519,-0.3876255664626069
2.050344515901803,1.487021896947519,0.5530848323103998
2.050344515901803,0.5530848323103998,0.33071799590976947
2.050344515901803,0.5530848323103998,-0.3876255664626069
-0.5773335132106352,0.33071799590976947,-0.3876255664626069
-0.5773335132106352,1.487021896947519,0.33071799590976947
-0.5773335132106352,1.487021896947519,-0.3876255664626069
-0.5773335132106352,1.487021896947519,0.5530848323103998
-0.5773335132106352,0.5530848323103998,0.33071799590976947
-0.5773335132106352,0.5530848323103998,-0.3876255664626069
1.487021896947519,0.33071799590976947,-0.3876255664626069
1.487021896947519,0.5530848323103998,0.33071799590976947
1.487021896947519,0.5530848323103998,-0.3876255664626069
0.5530848323103998,0.33071799590976947,-0.3876255664626069
