0,1,2
0.27658329927885655,-0.8236744430459012,0.4195987943343064
0.27658329927885655,-0.8236744430459012,-0.16802740336146263
0.27658329927885655,-0.8236744430459012,0.49185494529230017
0.27658329927885655,-0.8236744430459012,0.6576709595449804
0.27658329927885655,-0.8236744430459012,0.1349722917495746
0.27658329927885655,-0.8236744430459012,0.726583846055024
0.27658329927885655,-0.8236744430459012,-0.7658829117105872
0.27658329927885655,-0.8236744430459012,-1.6056946444852094
0.27658329927885655,0.4195987943343064,-0.16802740336146263
0.27658329927885655,0.4195987943343064,0.49185494529230017
0.27658329927885655,0.4195987943343064,0.6576709595449804
0.27658329927885655,0.4195987943343064,0.1349722917495746
0.27658329927885655,0.4195987943343064,0.726583846055024
0.27658329927885655,0.4195987943343064,-0.7658829117105872
0.27658329927885655,0.4195987943343064,-1.6056946444852094
0.27658329927885655,-0.16802740336146263,0.49185494529230017
0.27658329927885655,-0.16802740336146263,0.6576709595449804
0.27658329927885655,-0.16802740336146263,0.1349722917495746
0.27658329927885655,-0.16802740336146263,0.726583846055024
0.27658329927885655,-0.16802740336146263,-0.7658829117105872
0.27658329927885655,-0.16802740336146263,-1.6056946444852094
0.27658329927885655,0.49185494529230017,-0.7658829117105872
0.27658329927885655,0.49185494529230017,-1.6056946444852094
0.27658329927885655,0.49185494529230017,0.6576709595449804
0.27658329927885655,0.49185494529230017,0.1349722917495746
0.27658329927885655,0.49185494529230017,0.726583846055024
0.27658329927885655,0.6576709595449804,-0.7658829117105872
0.27658329927885655,0.6576709595449804,-1.6056946444852094
0.27658329927885655,0.6576709595449804,0.1349722917495746
0.27658329927885655,0.6576709595449804,0.726583846055024
0.27658329927885655,0.1349722917495746,-0.7658829117105872
0.27658329927885655,0.1349722917495746,-1.6056946444852094
0.27658329927885655,0.1349722917495746,0.726583846055024
0.27658329927885655,0.726583846055024,-0.7658829117105872
0.27658329927885655,0.726583846055024,-1.6056946444852094
0.27658329927885655,-0.7658829117105872,-1.6056946444852094
-0.8236744430459012,0.4195987943343064,-0.16802740336146263
-0.8236744430459012,0.4195987943343064,0.49185494529230017
-0.8236744430459012,0.4195987943343064,0.6576709595449804
-0.8236744430459012,0.4195987943343064,0.1349722917495746
-0.8236744430459012,0.4195987943343064,0.726583846055024
-0.8236744430459012,0.4195987943343064,-0.7658829117105872
-0.8236744430459012,0.4195987943343064,-1.6056946444852094
-0.8236744430459012,-0.16802740336146263,0.49185494529230017
-0.8236744430459012,-0.16802740336146263,0.6576709595449804
-0.8236744430459012,-0.16802740336146263,0.1349722917495746
-0.8236744430459012,-0.16802740336146263,0.726583846055024
-0.8236744430459012,-0.16802740336146263,-0.7658829117105872
-0.8236744430459012,-0.16802740336146263,-1.6056946444852094
-0.8236744430459012,0.49185494529230017,-0.7658829117105872
-0.8236744430459012,0.49185494529230017,-1.6056946444852094
-0.8236744430459012,0.49185494529230017,0.6576709595449804
-0.8236744430459012,0.49185494529230017,0.1349722917495746
-0.8236744430459012,0.49185494529230017,0.726583846055024
-0.8236744430459012,0.6576709595449804,-0.7658829117105872
-0.8236744430459012,0.6576709595449804,-1.6056946444852094
-0.8236744430459012,0.6576709595449804,0.1349722917495746
-0.8236744430459012,0.6576709595449804,0.726583846055024
-0.8236744430459012,0.1349722917495746,-0.7658829117105872
-0.8236744430459012,0.1349722917495746,-1.6056946444852094
-0.8236744430459012,0.1349722917495746,0.726583846055024
-0.8236744430459012,0.726583846055024,-0.7658829117105872
-0.8236744430459012,0.726583846055024,-1.6056946444852094
-0.8236744430459012,-0.7658829117105872,-1.6056946444852094
0.4195987943343064,-0.16802740336146263,0.49185494529230017
0.4195987943343064,-0.16802740336146263,0.6576709595449804
0.4195987943343064,-0.16802740336146263,0.1349722917495746
0.4195987943343064,-0.16802740336146263,0.726583846055024
0.4195987943343064,-0.16802740336146263,-0.7658829117105872
0.4195987943343064,-0.16802740336146263,-1.6056946444852094
0.4195987943343064,0.49185494529230017,-0.7658829117105872
0.4195987943343064,0.49185494529230017,-1.6056946444852094
0.4195987943343064,0.49185494529230017,0.6576709595449804
0.4195987943343064,0.49185494529230017,0.1349722917495746
0.4195987943343064,0.49185494529230017,0.726583846055024
0.4195987943343064,0.6576709595449804,-0.7658829117105872
0.4195987943343064,0.6576709595449804,-1.6056946444852094
0.4195987943343064,0.6576709595449804,0.1349722917495746
0.4195987943343064,0.6576709595449804,0.726583846055024
0.4195987943343064,0.1349722917495746,-0.7658829117105872
0.4195987943343064,0.1349722917495746,-1.6056946444852094
0.4195987943343064,0.1349722917495746,0.726583846055024
0.4195987943343064,0.726583846055024,-0.7658829117105872
0.4195987943343064,0.726583846055024,-1.6056946444852094
0.4195987943343064,-0.7658829117105872,-1.6056946444852094
-0.16802740336146263,0.49185494529230017,-0.7658829117105872
-0.16802740336146263,0.49185494529230017,-1.6056946444852094
-0.16802740336146263,0.49185494529230017,0.6576709595449804
-0.16802740336146263,0.49185494529230017,0.1349722917495746
-0.16802740336146263,0.49185494529230017,0.726583846055024
-0.16802740336146263,0.6576709595449804,-0.7658829117105872
-0.16802740336146263,0.6576709595449804,-1.6056946444852094
-0.16802740336146263,0.6576709595449804,0.1349722917495746
-0.16802740336146263,0.6576709595449804,0.726583846055024
-0.16802740336146263,0.1349722917495746,-0.7658829117105872
-0.16802740336146263,0.1349722917495746,-1.6056946444852094
-0.16802740336146263,0.1349722917495746,0.726583846055024
-0.16802740336146263,0.726583846055024,-0.7658829117105872
-0.16802740336146263,0.726583846055024,-1.6056946444852094
-0.16802740336146263,-0.7658829117105872,-1.6056946444852094
0.49185494529230017,-0.7658829117105872,-1.6056946444852094
0.49185494529230017,0.6576709595449804,-0.7658829117105872
0.49185494529230017,0.6576709595449804,-1.6056946444852094
0.49185494529230017,0.6576709595449804,0.1349722917495746
0.49185494529230017,0.6576709595449804,0.726583846055024
0.49185494529230017,0.1349722917495746,-0.7658829117105872
0.49185494529230017,0.1349722917495746,-1.6056946444852094
0.49185494529230017,0.1349722917495746,0.726583846055024
0.49185494529230017,0.726583846055024,-0.7658829117105872
0.49185494529230017,0.726583846055024,-1.6056946444852094
0.6576709595449804,-0.7658829117105872,-1.6056946444852094
0.6576709595449804,0.1349722917495746,-0.7658829117105872
0.6576709595449804,0.1349722917495746,-1.6056946444852094
0.6576709595449804,0.1349722917495746,0.726583846055024
0.6576709595449804,0.726583846055024,-0.7658829117105872
0.6576709595449804,0.726583846055024,-1.6056946444852094
0.1349722917495746,-0.7658829117105872,-1.6056946444852094
0.1349722917495746,0.726583846055024,-0.7658829117105872
0.1349722917495746,0.726583846055024,-1.6056946444852094
0.726583846055024,-0.7658829117105872,-1.6056946444852094
