0,1,2
-0.9028298971967059,0.20391463513943625,-0.6076841436378453
-0.9028298971967059,0.20391463513943625,0.31785017139659705
-0.9028298971967059,0.20391463513943625,-0.29004475721156003
-0.9028298971967059,0.20391463513943625,-1.7850359700348741
-0.9028298971967059,0.20391463513943625,-0.9754780586468933
-0.9028298971967059,0.20391463513943625,0.9061732301761359
-0.9028298971967059,0.20391463513943625,1.5289627359467604
-0.9028298971967059,0.20391463513943625,-0.012317612098585683
-0.9028298971967059,-0.6076841436378453,0.31785017139659705
-0.9028298971967059,-0.6076841436378453,-0.29004475721156003
-0.9028298971967059,-0.6076841436378453,-1.7850359700348741
-0.9028298971967059,-0.6076841436378453,-0.9754780586468933
-0.9028298971967059,-0.6076841436378453,0.9061732301761359
-0.9028298971967059,-0.6076841436378453,1.5289627359467604
-0.9028298971967059,-0.6076841436378453,-0.012317612098585683
-0.9028298971967059,0.31785017139659705,-0.29004475721156003
-0.9028298971967059,0.31785017139659705,-1.7850359700348741
-0.9028298971967059,0.31785017139659705,-0.9754780586468933
-0.9028298971967059,0.31785017139659705,0.9061732301761359
-0.9028298971967059,0.31785017139659705,1.5289627359467604
-0.9028298971967059,0.31785017139659705,-0.012317612098585683
-0.9028298971967059,-0.29004475721156003,1.5289627359467604
-0.9028298971967059,-0.29004475721156003,-0.012317612098585683
-0.9028298971967059,-0.29004475721156003,-1.7850359700348741
-0.9028298971967059,-0.29004475721156003,-0.9754780586468933
-0.9028298971967059,-0.29004475721156003,0.9061732301761359
-0.9028298971967059,-1.7850359700348741,1.5289627359467604
-0.9028298971967059,-1.7850359700348741,-0.012317612098585683
-0.9028298971967059,-1.7850359700348741,-0.9754780586468933
-0.9028298971967059,-1.7850359700348741,0.9061732301761359
-0.9028298971967059,-0.9754780586468933,1.5289627359467604
-0.9028298971967059,-0.9754780586468933,-0.012317612098585683
-0.9028298971967059,-0.9754780586468933,0.9061732301761359
-0.9028298971967059,0.9061732301761359,1.5289627359467604
-0.9028298971967059,0.9061732301761359,-0.012317612098585683
-0.9028298971967059,1.5289627359467604,-0.012317612098585683
0.20391463513943625,-0.6076841436378453,0.31785017139659705
0.20391463513943625,-0.6076841436378453,-0.29004475721156003
0.20391463513943625,-0.6076841436378453,-1.7850359700348741
0.20391463513943625,-0.6076841436378453,-0.9754780586468933
0.20391463513943625,-0.6076841436378453,0.9061732301761359
0.20391463513943625,-0.6076841436378453,1.5289627359467604
0.20391463513943625,-0.6076841436378453,-0.012317612098585683
0.20391463513943625,0.31785017139659705,-0.29004475721156003
0.20391463513943625,0.31785017139659705,-1.7850359700348741
0.20391463513943625,0.31785017139659705,-0.9754780586468933
0.20391463513943625,0.31785017139659705,0.9061732301761359
0.20391463513943625,0.31785017139659705,1.5289627359467604
0.20391463513943625,0.31785017139659705,-0.012317612098585683
0.20391463513943625,-0.29004475721156003,1.5289627359467604
0.20391463513943625,-0.29004475721156003,-0.012317612098585683
0.20391463513943625,-0.29004475721156003,-1.7850359700348741
0.20391463513943625,-0.29004475721156003,-0.9754780586468933
0.20391463513943625,-0.29004475721156003,0.9061732301761359
0.20391463513943625,-1.7850359700348741,1.5289627359467604
0.20391463513943625,-1.7850359700348741,-0.012317612098585683
0.20391463513943625,-1.7850359700348741,-0.9754780586468933
0.20391463513943625,-1.7850359700348741,0.9061732301761359
0.20391463513943625,-0.9754780586468933,1.5289627359467604
0.20391463513943625,-0.9754780586468933,-0.012317612098585683
0.20391463513943625,-0.9754780586468933,0.9061732301761359
0.20391463513943625,0.9061732301761359,1.5289627359467604
0.20391463513943625,0.9061732301761359,-0.012317612098585683
0.20391463513943625,1.5289627359467604,-0.012317612098585683
-0.6076841436378453,0.31785017139659705,-0.29004475721156003
-0.6076841436378453,0.31785017139659705,-1.7850359700348741
-0.6076841436378453,0.31785017139659705,-0.9754780586468933
-0.6076841436378453,0.31785017139659705,0.9061732301761359
-0.6076841436378453,0.31785017139659705,1.5289627359467604
-0.6076841436378453,0.31785017139659705,-0.012317612098585683
-0.6076841436378453,-0.29004475721156003,1.5289627359467604
-0.6076841436378453,-0.29004475721156003,-0.012317612098585683
-0.6076841436378453,-0.29004475721156003,-1.7850359700348741
-0.6076841436378453,-0.29004475721156003,-0.9754780586468933
-0.6076841436378453,-0.29004475721156003,0.9061732301761359
-0.6076841436378453,-1.7850359700348741,1.5289627359467604
-0.6076841436378453,-1.7850359700348741,-0.012317612098585683
-0.6076841436378453,-1.7850359700348741,-0.9754780586468933
-0.6076841436378453,-1.7850359700348741,0.9061732301761359
-0.6076841436378453,-0.9754780586468933,1.5289627359467604
-0.6076841436378453,-0.9754780586468933,-0.012317612098585683
-0.6076841436378453,-0.9754780586468933,0.9061732301761359
-0.6076841436378453,0.9061732301761359,1.5289627359467604
-0.6076841436378453,0.9061732301761359,-0.012317612098585683
-0.6076841436378453,1.5289627359467604,-0.012317612098585683
0.31785017139659705,-0.29004475721156003,1.5289627359467604
0.31785017139659705,-0.29004475721156003,-0.012317612098585683
0.31785017139659705,-0.29004475721156003,-1.7850359700348741
0.31785017139659705,-0.29004475721156003,-0.9754780586468933
0.31785017139659705,-0.29004475721156003,0.9061732301761359
0.31785017139659705,-1.7850359700348741,1.5289627359467604
0.31785017139659705,-1.7850359700348741,-0.012317612098585683
0.31785017139659705,-1.7850359700348741,-0.9754780586468933
0.31785017139659705,-1.7850359700348741,0.9061732301761359
0.31785017139659705,-0.9754780586468933,1.5289627359467604
0.31785017139659705,-0.9754780586468933,-0.012317612098585683
0.31785017139659705,-0.9754780586468933,0.9061732301761359
0.31785017139659705,0.9061732301761359,1.5289627359467604
0.31785017139659705,0.9061732301761359,-0.012317612098585683
0.31785017139659705,1.5289627359467604,-0.012317612098585683
-0.29004475721156003,1.5289627359467604,-0.012317612098585683
-0.29004475721156003,-1.7850359700348741,1.5289627359467604
-0.29004475721156003,-1.7850359700348741,-0.012317612098585683
-0.29004475721156003,-1.7850359700348741,-0.9754780586468933
-0.29004475721156003,-1.7850359700348741,0.9061732301761359
-0.29004475721156003,-0.9754780586468933,1.5289627359467604
-0.29004475721156003,-0.9754780586468933,-0.012317612098585683
-0.29004475721156003,-0.9754780586468933,0.9061732301761359
-0.29004475721156003,0.9061732301761359,1.5289627359467604
-0.29004475721156003,0.9061732301761359,-0.012317612098585683
-1.7850359700348741,1.5289627359467604,-0.012317612098585683
-1.7850359700348741,-0.9754780586468933,1.5289627359467604
-1.7850359700348741,-0.9754780586468933,-0.012317612098585683
-1.7850359700348741,-0.9754780586468933,0.9061732301761359
-1.7850359700348741,0.9061732301761359,1.5289627359467604
-1.7850359700348741,0.9061732301761359,-0.012317612098585683
-0.9754780586468933,1.5289627359467604,-0.012317612098585683
-0.9754780586468933,0.9061732301761359,1.5289627359467604
-0.9754780586468933,0.9061732301761359,-0.012317612098585683
0.9061732301761359,1.5289627359467604,-0.012317612098585683
