0,1,2
1.3446516799803205,-0.24082517096204187,0.03073209741838678
1.3446516799803205,-0.24082517096204187,-0.3107427927627319
1.3446516799803205,-0.24082517096204187,-2.7058187557155344
1.3446516799803205,-0.24082517096204187,0.33687205471397164
1.3446516799803205,-0.24082517096204187,-0.8516540752099314
1.3446516799803205,-0.24082517096204187,-1.3094045516367139
1.3446516799803205,-0.24082517096204187,1.1037619683244784
1.3446516799803205,-0.24082517096204187,-0.9957939089775818
1.3446516799803205,0.03073209741838678,-0.3107427927627319
1.3446516799803205,0.03073209741838678,-2.7058187557155344
1.3446516799803205,0.03073209741838678,0.33687205471397164
1.3446516799803205,0.03073209741838678,-0.8516540752099314
1.3446516799803205,0.03073209741838678,-1.3094045516367139
1.3446516799803205,0.03073209741838678,1.1037619683244784
1.3446516799803205,0.03073209741838678,-0.9957939089775818
1.3446516799803205,-0.3107427927627319,-2.7058187557155344
1.3446516799803205,-0.3107427927627319,0.33687205471397164
1.3446516799803205,-0.3107427927627319,-0.8516540752099314
1.3446516799803205,-0.3107427927627319,-1.3094045516367139
1.3446516799803205,-0.3107427927627319,1.1037619683244784
1.3446516799803205,-0.3107427927627319,-0.9957939089775818
1.3446516799803205,-2.7058187557155344,1.1037619683244784
1.3446516799803205,-2.7058187557155344,-0.9957939089775818
1.3446516799803205,-2.7058187557155344,0.33687205471397164
1.3446516799803205,-2.7058187557155344,-0.8516540752099314
1.3446516799803205,-2.7058187557155344,-1.3094045516367139
1.3446516799803205,0.33687205471397164,1.1037619683244784
1.3446516799803205,0.33687205471397164,-0.9957939089775818
1.3446516799803205,0.33687205471397164,-0.8516540752099314
1.3446516799803205,0.33687205471397164,-1.3094045516367139
1.3446516799803205,-0.8516540752099314,1.1037619683244784
1.3446516799803205,-0.8516540752099314,-0.9957939089775818
1.3446516799803205,-0.8516540752099314,-1.3094045516367139
1.3446516799803205,-1.3094045516367139,1.1037619683244784
1.3446516799803205,-1.3094045516367139,-0.9957939089775818
1.3446516799803205,1.1037619683244784,-0.9957939089775818
-0.24082517096204187,0.03073209741838678,-0.3107427927627319
-0.24082517096204187,0.03073209741838678,-2.7058187557155344
-0.24082517096204187,0.03073209741838678,0.33687205471397164
-0.24082517096204187,0.03073209741838678,-0.8516540752099314
-0.24082517096204187,0.03073209741838678,-1.3094045516367139
-0.24082517096204187,0.03073209741838678,1.1037619683244784
-0.24082517096204187,0.03073209741838678,-0.9957939089775818
-0.24082517096204187,-0.3107427927627319,-2.7058187557155344
-0.24082517096204187,-0.3107427927627319,0.33687205471397164
-0.24082517096204187,-0.3107427927627319,-0.8516540752099314
-0.24082517096204187,-0.3107427927627319,-1.3094045516367139
-0.24082517096204187,-0.3107427927627319,1.1037619683244784
-0.24082517096204187,-0.3107427927627319,-0.9957939089775818
-0.24082517096204187,-2.7058187557155344,1.1037619683244784
-0.24082517096204187,-2.7058187557155344,-0.9957939089775818
-0.24082517096204187,-2.7058187557155344,0.33687205471397164
-0.24082517096204187,-2.7058187557155344,-0.8516540752099314
-0.24082517096204187,-2.7058187557155344,-1.3094045516367139
-0.24082517096204187,0.33687205471397164,1.1037619683244784
-0.24082517096204187,0.33687205471397164,-0.9957939089775818
-0.24082517096204187,0.33687205471397164,-0.8516540752099314
-0.24082517096204187,0.33687205471397164,-1.3094045516367139
-0.24082517096204187,-0.8516540752099314,1.1037619683244784
-0.24082517096204187,-0.8516540752099314,-0.9957939089775818
-0.24082517096204187,-0.8516540752099314,-1.3094045516367139
-0.24082517096204187,-1.3094045516367139,1.1037619683244784
-0.24082517096204187,-1.3094045516367139,-0.9957939089775818
-0.24082517096204187,1.1037619683244784,-0.9957939089775818
0.03073209741838678,-0.3107427927627319,-2.7058187557155344
0.03073209741838678,-0.3107427927627319,0.33687205471397164
0.03073209741838678,-0.3107427927627319,-0.8516540752099314
0.03073209741838678,-0.3107427927627319,-1.3094045516367139
0.03073209741838678,-0.3107427927627319,1.1037619683244784
0.03073209741838678,-0.3107427927627319,-0.9957939089775818
0.03073209741838678,-2.7058187557155344,1.1037619683244784
0.03073209741838678,-2.7058187557155344,-0.9957939089775818
0.03073209741838678,-2.7058187557155344,0.33687205471397164
0.03073209741838678,-2.7058187557155344,-0.8516540752099314
0.03073209741838678,-2.7058187557155344,-1.3094045516367139
0.03073209741838678,0.33687205471397164,1.1037619683244784
0.03073209741838678,0.33687205471397164,-0.9957939089775818
0.03073209741838678,0.33687205471397164,-0.8516540752099314
0.03073209741838678,0.33687205471397164,-1.3094045516367139
0.03073209741838678,-0.8516540752099314,1.1037619683244784
0.03073209741838678,-0.8516540752099314,-0.9957939089775818
0.03073209741838678,-0.8516540752099314,-1.3094045516367139
0.03073209741838678,-1.3094045516367139,1.1037619683244784
0.03073209741838678,-1.3094045516367139,-0.9957939089775818
0.03073209741838678,1.1037619683244784,-0.9957939089775818
-0.3107427927627319,-2.7058187557155344,1.1037619683244784
-0.3107427927627319,-2.7058187557155344,-0.9957939089775818
-0.3107427927627319,-2.7058187557155344,0.33687205471397164
-0.3107427927627319,-2.7058187557155344,-0.8516540752099314
-0.3107427927627319,-2.7058187557155344,-1.3094045516367139
-0.3107427927627319,0.33687205471397164,1.1037619683244784
-0.3107427927627319,0.33687205471397164,-0.9957939089775818
-0.3107427927627319,0.33687205471397164,-0.8516540752099314
-0.3107427927627319,0.33687205471397164,-1.3094045516367139
-0.3107427927627319,-0.8516540752099314,1.1037619683244784
-0.3107427927627319,-0.8516540752099314,-0.9957939089775818
-0.3107427927627319,-0.8516540752099314,-1.3094045516367139
-0.3107427927627319,-1.3094045516367139,1.1037619683244784
-0.3107427927627319,-1.3094045516367139,-0.9957939089775818
-0.3107427927627319,1.1037619683244784,-0.9957939089775818
-2.7058187557155344,1.1037619683244784,-0.9957939089775818
-2.7058187557155344,0.33687205471397164,1.1037619683244784
-2.7058187557155344,0.33687205471397164,-0.9957939089775818
-2.7058187557155344,0.33687205471397164,-0.8516540752099314
-2.7058187557155344,0.33687205471397164,-1.3094045516367139
-2.7058187557155344,-0.8516540752099314,1.1037619683244784
-2.7058187557155344,-0.8516540752099314,-0.9957939089775818
-2.7058187557155344,-0.8516540752099314,-1.3094045516367139
-2.7058187557155344,-1.3094045516367139,1.1037619683244784
-2.7058187557155344,-1.3094045516367139,-0.9957939089775818
0.33687205471397164,1.1037619683244784,-0.9957939089775818
0.33687205471397164,-0.8516540752099314,1.1037619683244784
0.33687205471397164,-0.8516540752099314,-0.9957939089775818
0.33687205471397164,-0.8516540752099314,-1.3094045516367139
0.33687205471397164,-1.3094045516367139,1.1037619683244784
0.33687205471397164,-1.3094045516367139,-0.9957939089775818
-0.8516540752099314,1.1037619683244784,-0.9957939089775818
-0.8516540752099314,-1.3094045516367139,1.1037619683244784
-0.8516540752099314,-1.3094045516367139,-0.9957939089775818
-1.3094045516367139,1.1037619683244784,-0.9957939089775818
