0,1,2
0.044514499157084414,-0.2188406641137472,0.4510053192229939
0.044514499157084414,-0.2188406641137472,1.4094964676879005
0.044514499157084414,-0.2188406641137472,-0.09898766216872056
0.044514499157084414,-0.2188406641137472,-1.7919334605272454
0.044514499157084414,-0.2188406641137472,-0.24946777519176438
0.044514499157084414,-0.2188406641137472,-0.5228763066507602
0.044514499157084414,-0.2188406641137472,0.9628160231128947
0.044514499157084414,-0.2188406641137472,-1.0329888886364758
0.044514499157084414,0.4510053192229939,1.4094964676879005
0.044514499157084414,0.4510053192229939,-0.09898766216872056
0.044514499157084414,0.4510053192229939,-1.7919334605272454
0.044514499157084414,0.4510053192229939,-0.24946777519176438
0.044514499157084414,0.4510053192229939,-0.5228763066507602
0.044514499157084414,0.4510053192229939,0.9628160231128947
0.044514499157084414,0.4510053192229939,-1.0329888886364758
0.044514499157084414,1.4094964676879005,-0.09898766216872056
0.044514499157084414,1.4094964676879005,-1.7919334605272454
0.044514499157084414,1.4094964676879005,-0.24946777519176438
0.044514499157084414,1.4094964676879005,-0.5228763066507602
0.044514499157084414,1.4094964676879005,0.9628160231128947
0.044514499157084414,1.4094964676879005,-1.0329888886364758
0.044514499157084414,-0.09898766216872056,0.9628160231128947
0.044514499157084414,-0.09898766216872056,-1.0329888886364758
0.044514499157084414,-0.09898766216872056,-1.7919334605272454
0.044514499157084414,-0.09898766216872056,-0.24946777519176438
0.044514499157084414,-0.09898766216872056,-0.5228763066507602
0.044514499157084414,-1.7919334605272454,0.9628160231128947
0.044514499157084414,-1.7919334605272454,-1.0329888886364758
0.044514499157084414,-1.7919334605272454,-0.24946777519176438
0.044514499157084414,-1.7919334605272454,-0.5228763066507602
0.044514499157084414,-0.24946777519176438,0.9628160231128947
0.044514499157084414,-0.24946777519176438,-1.0329888886364758
0.044514499157084414,-0.24946777519176438,-0.5228763066507602
0.044514499157084414,-0.5228763066507602,0.9628160231128947
0.044514499157084414,-0.5228763066507602,-1.0329888886364758
0.044514499157084414,0.9628160231128947,-1.0329888886364758
-0.2188406641137472,0.4510053192229939,1.4094964676879005
-0.2188406641137472,0.4510053192229939,-0.09898766216872056
-0.2188406641137472,0.4510053192229939,-1.7919334605272454
-0.2188406641137472,0.4510053192229939,-0.24946777519176438
-0.2188406641137472,0.4510053192229939,-0.5228763066507602
-0.2188406641137472,0.4510053192229939,0.9628160231128947
-0.2188406641137472,0.4510053192229939,-1.0329888886364758
-0.2188406641137472,1.4094964676879005,-0.09898766216872056
-0.2188406641137472,1.4094964676879005,-1.7919334605272454
-0.2188406641137472,1.4094964676879005,-0.24946777519176438
-0.2188406641137472,1.4094964676879005,-0.5228763066507602
-0.2188406641137472,1.4094964676879005,0.9628160231128947
-0.2188406641137472,1.4094964676879005,-1.0329888886364758
-0.2188406641137472,-0.09898766216872056,0.9628160231128947
-0.2188406641137472,-0.09898766216872056,-1.0329888886364758
-0.2188406641137472,-0.09898766216872056,-1.7919334605272454
-0.2188406641137472,-0.09898766216872056,-0.24946777519176438
-0.2188406641137472,-0.09898766216872056,-0.5228763066507602
-0.2188406641137472,-1.7919334605272454,0.9628160231128947
-0.2188406641137472,-1.7919334605272454,-1.0329888886364758
-0.2188406641137472,-1.7919334605272454,-0.24946777519176438
-0.2188406641137472,-1.7919334605272454,-0.5228763066507602
-0.2188406641137472,-0.24946777519176438,0.9628160231128947
-0.2188406641137472,-0.24946777519176438,-1.0329888886364758
-0.2188406641137472,-0.24946777519176438,-0.5228763066507602
-0.2188406641137472,-0.5228763066507602,0.9628160231128947
-0.2188406641137472,-0.5228763066507602,-1.0329888886364758
-0.2188406641137472,0.9628160231128947,-1.0329888886364758
0.4510053192229939,1.4094964676879005,-0.09898766216872056
0.4510053192229939,1.4094964676879005,-1.7919334605272454
0.4510053192229939,1.4094964676879005,-0.24946777519176438
0.4510053192229939,1.4094964676879005,-0.5228763066507602
0.4510053192229939,1.4094964676879005,0.9628160231128947
0.4510053192229939,1.4094964676879005,-1.0329888886364758
0.4510053192229939,-0.09898766216872056,0.9628160231128947
0.4510053192229939,-0.09898766216872056,-1.0329888886364758
0.4510053192229939,-0.09898766216872056,-1.7919334605272454
0.4510053192229939,-0.09898766216872056,-0.24946777519176438
0.4510053192229939,-0.09898766216872056,-0.5228763066507602
0.4510053192229939,-1.7919334605272454,0.9628160231128947
0.4510053192229939,-1.7919334605272454,-1.0329888886364758
0.4510053192229939,-1.7919334605272454,-0.24946777519176438
0.4510053192229939,-1.7919334605272454,-0.5228763066507602
0.4510053192229939,-0.24946777519176438,0.9628160231128947
0.4510053192229939,-0.24946777519176438,-1.0329888886364758
0.4510053192229939,-0.24946777519176438,-0.5228763066507602
0.4510053192229939,-0.5228763066507602,0.9628160231128947
0.4510053192229939,-0.5228763066507602,-1.0329888886364758
0.4510053192229939,0.9628160231128947,-1.0329888886364758
1.4094964676879005,-0.09898766216872056,0.9628160231128947
1.4094964676879005,-0.09898766216872056,-1.0329888886364758
1.4094964676879005,-0.09898766216872056,-1.7919334605272454
1.4094964676879005,-0.09898766216872056,-0.24946777519176438
1.4094964676879005,-0.09898766216872056,-0.5228763066507602
1.4094964676879005,-1.7919334605272454,0.9628160231128947
1.4094964676879005,-1.7919334605272454,-1.0329888886364758
1.4094964676879005,-1.7919334605272454,-0.24946777519176438
1.4094964676879005,-1.7919334605272454,-0.5228763066507602
1.4094964676879005,-0.24946777519176438,0.9628160231128947
1.4094964676879005,-0.24946777519176438,-1.0329888886364758
1.4094964676879005,-0.24946777519176438,-0.5228763066507602
1.4094964676879005,-0.5228763066507602,0.9628160231128947
1.4094964676879005,-0.5228763066507602,-1.0329888886364758
1.4094964676879005,0.9628160231128947,-1.0329888886364758
-0.09898766216872056,0.9628160231128947,-1.0329888886364758
-0.09898766216872056,-1.7919334605272454,0.9628160231128947
-0.09898766216872056,-1.7919334605272454,-1.0329888886364758
-0.09898766216872056,-1.7919334605272454,-0.24946777519176438
-0.09898766216872056,-1.7919334605272454,-0.5228763066507602
-0.09898766216872056,-0.24946777519176438,0.9628160231128947
-0.09898766216872056,-0.24946777519176438,-1.0329888886364758
-0.09898766216872056,-0.24946777519176438,-0.5228763066507602
-0.09898766216872056,-0.5228763066507602,0.9628160231128947
-0.09898766216872056,-0.5228763066507602,-1.0329888886364758
-1.7919334605272454,0.9628160231128947,-1.0329888886364758
-1.7919334605272454,-0.24946777519176438,0.9628160231128947
-1.7919334605272454,-0.24946777519176438,-1.0329888886364758
-1.7919334605272454,-0.24946777519176438,-0.5228763066507602
-1.7919334605272454,-0.5228763066507602,0.9628160231128947
-1.7919334605272454,-0.5228763066507602,-1.0329888886364758
-0.24946777519176438,0.9628160231128947,-1.0329888886364758
-0.24946777519176438,-0.5228763066507602,0.9628160231128947
-0.24946777519176438,-0.5228763066507602,-1.0329888886364758
-0.5228763066507602,0.9628160231128947,-1.0329888886364758
