0,1,2
0.8848361004804091,0.2916934616546135,0.9501026147285002
0.8848361004804091,0.2916934616546135,0.2005409626874567
0.8848361004804091,0.2916934616546135,-0.054625379685696536
0.8848361004804091,0.2916934616546135,-0.9490850662422449
0.8848361004804091,0.2916934616546135,-1.053711468565008
0.8848361004804091,0.2916934616546135,-1.1984896018104496
0.8848361004804091,0.2916934616546135,-0.16478899937499605
0.8848361004804091,0.2916934616546135,-0.7854123160720583
0.8848361004804091,0.9501026147285002,0.2005409626874567
0.8848361004804091,0.9501026147285002,-0.054625379685696536
0.8848361004804091,0.9501026147285002,-0.9490850662422449
0.8848361004804091,0.9501026147285002,-1.053711468565008
0.8848361004804091,0.9501026147285002,-1.1984896018104496
0.8848361004804091,0.9501026147285002,-0.16478899937499605
0.8848361004804091,0.9501026147285002,-0.7854123160720583
0.8848361004804091,0.2005409626874567,-0.054625379685696536
0.8848361004804091,0.2005409626874567,-0.9490850662422449
0.8848361004804091,0.2005409626874567,-1.053711468565008
0.8848361004804091,0.2005409626874567,-1.1984896018104496
0.8848361004804091,0.2005409626874567,-0.16478899937499605
0.8848361004804091,0.2005409626874567,-0.7854123160720583
0.8848361004804091,-0.054625379685696536,-0.16478899937499605
0.8848361004804091,-0.054625379685696536,-0.7854123160720583
0.8848361004804091,-0.054625379685696536,-0.9490850662422449
0.8848361004804091,-0.054625379685696536,-1.053711468565008
0.8848361004804091,-0.054625379685696536,-1.1984896018104496
0.8848361004804091,-0.9490850662422449,-0.16478899937499605
0.8848361004804091,-0.9490850662422449,-0.7854123160720583
0.8848361004804091,-0.9490850662422449,-1.053711468565008
0.8848361004804091,-0.9490850662422449,-1.1984896018104496
0.8848361004804091,-1.053711468565008,-0.16478899937499605
0.8848361004804091,-1.053711468565008,-0.7854123160720583
0.8848361004804091,-1.053711468565008,-1.1984896018104496
0.8848361004804091,-1.1984896018104496,-0.16478899937499605
0.8848361004804091,-1.1984896018104496,-0.7854123160720583
0.8848361004804091,-0.16478899937499605,-0.7854123160720583
0.2916934616546135,0.9501026147285002,0.2005409626874567
0.2916934616546135,0.9501026147285002,-0.054625379685696536
0.2916934616546135,0.9501026147285002,-0.9490850662422449
0.2916934616546135,0.9501026147285002,-1.053711468565008
0.2916934616546135,0.9501026147285002,-1.1984896018104496
0.2916934616546135,0.9501026147285002,-0.16478899937499605
0.2916934616546135,0.9501026147285002,-0.7854123160720583
0.2916934616546135,0.2005409626874567,-0.054625379685696536
0.2916934616546135,0.2005409626874567,-0.9490850662422449
0.2916934616546135,0.2005409626874567,-1.053711468565008
0.2916934616546135,0.2005409626874567,-1.1984896018104496
0.2916934616546135,0.2005409626874567,-0.16478899937499605
0.2916934616546135,0.2005409626874567,-0.7854123160720583
0.2916934616546135,-0.054625379685696536,-0.16478899937499605
0.2916934616546135,-0.054625379685696536,-0.7854123160720583
0.2916934616546135,-0.054625379685696536,-0.9490850662422449
0.2916934616546135,-0.054625379685696536,-1.053711468565008
0.2916934616546135,-0.054625379685696536,-1.1984896018104496
0.2916934616546135,-0.9490850662422449,-0.16478899937499605
0.2916934616546135,-0.9490850662422449,-0.7854123160720583
0.2916934616546135,-0.9490850662422449,-1.053711468565008
0.2916934616546135,-0.9490850662422449,-1.1984896018104496
0.2916934616546135,-1.053711468565008,-0.16478899937499605
0.2916934616546135,-1.053711468565008,-0.7854123160720583
0.2916934616546135,-1.053711468565008,-1.1984896018104496
0.2916934616546135,-1.1984896018104496,-0.16478899937499605
0.2916934616546135,-1.1984896018104496,-0.7854123160720583
0.2916934616546135,-0.16478899937499605,-0.7854123160720583
0.9501026147285002,0.2005409626874567,-0.054625379685696536
0.9501026147285002,0.2005409626874567,-0.9490850662422449
0.9501026147285002,0.2005409626874567,-1.053711468565008
0.9501026147285002,0.2005409626874567,-1.1984896018104496
0.9501026147285002,0.2005409626874567,-0.16478899937499605
0.9501026147285002,0.2005409626874567,-0.7854123160720583
0.9501026147285002,-0.054625379685696536,-0.16478899937499605
0.9501026147285002,-0.054625379685696536,-0.7854123160720583
0.9501026147285002,-0.054625379685696536,-0.9490850662422449
0.9501026147285002,-0.054625379685696536,-1.053711468565008
0.9501026147285002,-0.054625379685696536,-1.1984896018104496
0.9501026147285002,-0.9490850662422449,-0.16478899937499605
0.9501026147285002,-0.9490850662422449,-0.7854123160720583
0.9501026147285002,-0.9490850662422449,-1.053711468565008
0.9501026147285002,-0.9490850662422449,-1.1984896018104496
0.9501026147285002,-1.053711468565008,-0.16478899937499605
0.9501026147285002,-1.053711468565008,-0.7854123160720583
0.9501026147285002,-1.053711468565008,-1.1984896018104496
0.9501026147285002,-1.1984896018104496,-0.16478899937499605
0.9501026147285002,-1.1984896018104496,-0.7854123160720583
0.9501026147285002,-0.16478899937499605,-0.7854123160720583
0.2005409626874567,-0.054625379685696536,-0.16478899937499605
0.2005409626874567,-0.054625379685696536,-0.7854123160720583
0.2005409626874567,-0.054625379685696536,-0.9490850662422449
0.2005409626874567,-0.054625379685696536,-1.053711468565008
0.2005409626874567,-0.054625379685696536,-1.1984896018104496
0.2005409626874567,-0.9490850662422449,-0.16478899937499605
0.2005409626874567,-0.9490850662422449,-0.7854123160720583
0.2005409626874567,-0.9490850662422449,-1.053711468565008
0.2005409626874567,-0.9490850662422449,-1.1984896018104496
0.2005409626874567,-1.053711468565008,-0.16478899937499605
0.2005409626874567,-1.053711468565008,-0.7854123160720583
0.2005409626874567,-1.053711468565008,-1.1984896018104496
0.2005409626874567,-1.1984896018104496,-0.16478899937499605
0.2005409626874567,-1.1984896018104496,-0.7854123160720583
0.2005409626874567,-0.16478899937499605,-0.7854123160720583
-0.054625379685696536,-0.16478899937499605,-0.7854123160720583
-0.054625379685696536,-0.9490850662422449,-0.16478899937499605
-0.054625379685696536,-0.9490850662422449,-0.7854123160720583
-0.054625379685696536,-0.9490850662422449,-1.053711468565008
-0.054625379685696536,-0.9490850662422449,-1.1984896018104496
-0.054625379685696536,-1.053711468565008,-0.16478899937499605
-0.054625379685696536,-1.053711468565008,-0.7854123160720583
-0.054625379685696536,-1.053711468565008,-1.1984896018104496
-0.054625379685696536,-1.1984896018104496,-0.16478899937499605
-0.054625379685696536,-1.1984896018104496,-0.7854123160720583
-0.9490850662422449,-0.16478899937499605,-0.7854123160720583
-0.9490850662422449,-1.053711468565008,-0.16478899937499605
-0.9490850662422449,-1.053711468565008,-0.7854123160720583
-0.9490850662422449,-1.053711468565008,-1.1984896018104496
-0.9490850662422449,-1.1984896018104496,-0.16478899937499605
-0.9490850662422449,-1.1984896018104496,-0.7854123160720583
-1.053711468565008,-0.16478899937499605,-0.7854123160720583
-1.053711468565008,-1.1984896018104496,-0.16478899937499605
-1.053711468565008,-1.1984896018104496,-0.7854123160720583
-1.1984896018104496,-0.16478899937499605,-0.7854123160720583
