0,1,2
-0.8177695456643725,1.8131161630776933,0.24518028394877003
-0.8177695456643725,1.8131161630776933,-0.1511867868853248
-0.8177695456643725,1.8131161630776933,0.3334695346363706
-0.8177695456643725,1.8131161630776933,0.08647837290630317
-0.8177695456643725,1.8131161630776933,-0.9698374108887662
-0.8177695456643725,1.8131161630776933,0.557209473889657
-0.8177695456643725,1.8131161630776933,-2.001633601289554
-0.8177695456643725,1.8131161630776933,-1.2380441220375717
-0.8177695456643725,0.24518028394877003,-0.1511867868853248
-0.8177695456643725,0.24518028394877003,0.3334695346363706
-0.8177695456643725,0.24518028394877003,0.08647837290630317
-0.8177695456643725,0.24518028394877003,-0.9698374108887662
-0.8177695456643725,0.24518028394877003,0.557209473889657
-0.8177695456643725,0.24518028394877003,-2.001633601289554
-0.8177695456643725,0.24518028394877003,-1.2380441220375717
-0.8177695456643725,-0.1511867868853248,0.3334695346363706
-0.8177695456643725,-0.1511867868853248,0.08647837290630317
-0.8177695456643725,-0.1511867868853248,-0.9698374108887662
-0.8177695456643725,-0.1511867868853248,0.557209473889657
-0.8177695456643725,-0.1511867868853248,-2.001633601289554
-0.8177695456643725,-0.1511867868853248,-1.2380441220375717
-0.8177695456643725,0.3334695346363706,-2.001633601289554
-0.8177695456643725,0.3334695346363706,-1.2380441220375717
-0.8177695456643725,0.3334695346363706,0.08647837290630317
-0.8177695456643725,0.3334695346363706,-0.9698374108887662
-0.8177695456643725,0.3334695346363706,0.557209473889657
-0.8177695456643725,0.08647837290630317,-2.001633601289554
-0.8177695456643725,0.08647837290630317,-1.2380441220375717
-0.8177695456643725,0.08647837290630317,-0.9698374108887662
-0.8177695456643725,0.08647837290630317,0.557209473889657
-0.8177695456643725,-0.9698374108887662,-2.001633601289554
-0.8177695456643725,-0.9698374108887662,-1.2380441220375717
-0.8177695456643725,-0.9698374108887662,0.557209473889657
-0.8177695456643725,0.557209473889657,-2.001633601289554
-0.8177695456643725,0.557209473889657,-1.2380441220375717
-0.8177695456643725,-2.001633601289554,-1.2380441220375717
1.8131161630776933,0.24518028394877003,-0.1511867868853248
1.8131161630776933,0.24518028394877003,0.3334695346363706
1.8131161630776933,0.24518028394877003,0.08647837290630317
1.8131161630776933,0.24518028394877003,-0.9698374108887662
1.8131161630776933,0.24518028394877003,0.557209473889657
1.8131161630776933,0.24518028394877003,-2.001633601289554
1.8131161630776933,0.24518028394877003,-1.2380441220375717
1.8131161630776933,-0.1511867868853248,0.3334695346363706
1.8131161630776933,-0.1511867868853248,0.08647837290630317
1.8131161630776933,-0.1511867868853248,-0.9698374108887662
1.8131161630776933,-0.1511867868853248,0.557209473889657
1.8131161630776933,-0.1511867868853248,-2.001633601289554
1.8131161630776933,-0.1511867868853248,-1.2380441220375717
1.8131161630776933,0.3334695346363706,-2.001633601289554
1.8131161630776933,0.3334695346363706,-1.2380441220375717
1.8131161630776933,0.3334695346363706,0.08647837290630317
1.8131161630776933,0.3334695346363706,-0.9698374108887662
1.8131161630776933,0.3334695346363706,0.557209473889657
1.8131161630776933,0.08647837290630317,-2.001633601289554
1.8131161630776933,0.08647837290630317,-1.2380441220375717
1.8131161630776933,0.08647837290630317,-0.9698374108887662
1.8131161630776933,0.08647837290630317,0.557209473889657
1.8131161630776933,-0.9698374108887662,-2.001633601289554
1.8131161630776933,-0.9698374108887662,-1.2380441220375717
1.8131161630776933,-0.9698374108887662,0.557209473889657
1.8131161630776933,0.557209473889657,-2.001633601289554
1.8131161630776933,0.557209473889657,-1.2380441220375717
1.8131161630776933,-2.001633601289554,-1.2380441220375717
0.24518028394877003,-0.1511867868853248,0.3334695346363706
0.24518028394877003,-0.1511867868853248,0.08647837290630317
0.24518028394877003,-0.1511867868853248,-0.9698374108887662
0.24518028394877003,-0.1511867868853248,0.557209473889657
0.24518028394877003,-0.1511867868853248,-2.001633601289554
0.24518028394877003,-0.1511867868853248,-1.2380441220375717
0.24518028394877003,0.3334695346363706,-2.001633601289554
0.24518028394877003,0.3334695346363706,-1.2380441220375717
0.24518028394877003,0.3334695346363706,0.08647837290630317
0.24518028394877003,0.3334695346363706,-0.9698374108887662
0.24518028394877003,0.3334695346363706,0.557209473889657
0.24518028394877003,0.08647837290630317,-2.001633601289554
0.24518028394877003,0.08647837290630317,-1.2380441220375717
0.24518028394877003,0.08647837290630317,-0.9698374108887662
0.24518028394877003,0.08647837290630317,0.557209473889657
0.24518028394877003,-0.9698374108887662,-2.001633601289554
0.24518028394877003,-0.9698374108887662,-1.2380441220375717
0.24518028394877003,-0.9698374108887662,0.557209473889657
0.24518028394877003,0.557209473889657,-2.001633601289554
0.24518028394877003,0.557209473889657,-1.2380441220375717
0.24518028394877003,-2.001633601289554,-1.2380441220375717
-0.1511867868853248,0.3334695346363706,-2.001633601289554
-0.1511867868853248,0.3334695346363706,-1.2380441220375717
-0.1511867868853248,0.3334695346363706,0.08647837290630317
-0.1511867868853248,0.3334695346363706,-0.9698374108887662
-0.1511867868853248,0.3334695346363706,0.557209473889657
-0.1511867868853248,0.08647837290630317,-2.001633601289554
-0.1511867868853248,0.08647837290630317,-1.2380441220375717
-0.1511867868853248,0.08647837290630317,-0.9698374108887662
-0.1511867868853248,0.08647837290630317,0.557209473889657
-0.1511867868853248,-0.9698374108887662,-2.001633601289554
-0.1511867868853248,-0.9698374108887662,-1.2380441220375717
-0.1511867868853248,-0.9698374108887662,0.557209473889657
-0.1511867868853248,0.557209473889657,-2.001633601289554
-0.1511867868853248,0.557209473889657,-1.2380441220375717
-0.1511867868853248,-2.001633601289554,-1.2380441220375717
0.3334695346363706,-2.001633601289554,-1.2380441220375717
0.3334695346363706,0.08647837290630317,-2.001633601289554
0.3334695346363706,0.08647837290630317,-1.2380441220375717
0.3334695346363706,0.08647837290630317,-0.9698374108887662
0.3334695346363706,0.08647837290630317,0.557209473889657
0.3334695346363706,-0.9698374108887662,-2.001633601289554
0.3334695346363706,-0.9698374108887662,-1.2380441220375717
0.3334695346363706,-0.9698374108887662,0.557209473889657
0.3334695346363706,0.557209473889657,-2.001633601289554
0.3334695346363706,0.557209473889657,-1.2380441220375717
0.08647837290630317,-2.001633601289554,-1.2380441220375717
0.08647837290630317,-0.9698374108887662,-2.001633601289554
0.08647837290630317,-0.9698374108887662,-1.2380441220375717
0.08647837290630317,-0.9698374108887662,0.557209473889657
0.08647837290630317,0.557209473889657,-2.001633601289554
0.08647837290630317,0.557209473889657,-1.2380441220375717
-0.9698374108887662,-2.001633601289554,-1.2380441220375717
-0.9698374108887662,0.557209473889657,-2.001633601289554
-0.9698374108887662,0.557209473889657,-1.2380441220375717
0.557209473889657,-2.001633601289554,-1.2380441220375717
