0,1,2
-0.21588959145150421,-2.510344921806502,-0.10464383773909765
-0.21588959145150421,-2.510344921806502,-1.6013257027808325
-0.21588959145150421,-2.510344921806502,1.0894681061430844
-0.21588959145150421,-2.510344921806502,0.34711928836742156
-0.21588959145150421,-2.510344921806502,0.044340611640748984
-0.21588959145150421,-2.510344921806502,1.6211059661613403
-0.21588959145150421,-2.510344921806502,0.6510601179961955
-0.21588959145150421,-2.510344921806502,-1.0914159663944454
-0.21588959145150421,-0.10464383773909765,-1.6013257027808325
-0.21588959145150421,-0.10464383773909765,1.0894681061430844
-0.21588959145150421,-0.10464383773909765,0.34711928836742156
-0.21588959145150421,-0.10464383773909765,0.044340611640748984
-0.21588959145150421,-0.10464383773909765,1.6211059661613403
-0.21588959145150421,-0.10464383773909765,0.6510601179961955
-0.21588959145150421,-0.10464383773909765,-1.0914159663944454
-0.21588959145150421,-1.6013257027808325,1.0894681061430844
-0.21588959145150421,-1.6013257027808325,0.34711928836742156
-0.21588959145150421,-1.6013257027808325,0.044340611640748984
-0.21588959145150421,-1.6013257027808325,1.6211059661613403
-0.21588959145150421,-1.6013257027808325,0.6510601179961955
-0.21588959145150421,-1.6013257027808325,-1.0914159663944454
-0.21588959145150421,1.0894681061430844,0.6510601179961955
-0.21588959145150421,1.0894681061430844,-1.0914159663944454
-0.21588959145150421,1.0894681061430844,0.34711928836742156
-0.21588959145150421,1.0894681061430844,0.044340611640748984
-0.21588959145150421,1.0894681061430844,1.6211059661613403
-0.21588959145150421,0.34711928836742156,0.6510601179961955
-0.21588959145150421,0.34711928836742156,-1.0914159663944454
-0.21588959145150421,0.34711928836742156,0.044340611640748984
-0.21588959145150421,0.34711928836742156,1.6211059661613403
-0.21588959145150421,0.044340611640748984,0.6510601179961955
-0.21588959145150421,0.044340611640748984,-1.0914159663944454
-0.21588959145150421,0.044340611640748984,1.6211059661613403
-0.21588959145150421,1.6211059661613403,0.6510601179961955
-0.21588959145150421,1.6211059661613403,-1.0914159663944454
-0.21588959145150421,0.6510601179961955,-1.0914159663944454
-2.510344921806502,-0.10464383773909765,-1.6013257027808325
-2.510344921806502,-0.10464383773909765,1.0894681061430844
-2.510344921806502,-0.10464383773909765,0.34711928836742156
-2.510344921806502,-0.10464383773909765,0.044340611640748984
-2.510344921806502,-0.10464383773909765,1.6211059661613403
-2.510344921806502,-0.10464383773909765,0.6510601179961955
-2.510344921806502,-0.10464383773909765,-1.0914159663944454
-2.510344921806502,-1.6013257027808325,1.0894681061430844
-2.510344921806502,-1.6013257027808325,0.34711928836742156
-2.510344921806502,-1.6013257027808325,0.044340611640748984
-2.510344921806502,-1.6013257027808325,1.6211059661613403
-2.510344921806502,-1.6013257027808325,0.6510601179961955
-2.510344921806502,-1.6013257027808325,-1.0914159663944454
-2.510344921806502,1.0894681061430844,0.6510601179961955
-2.510344921806502,1.0894681061430844,-1.0914159663944454
-2.510344921806502,1.0894681061430844,0.34711928836742156
-2.510344921806502,1.0894681061430844,0.044340611640748984
-2.510344921806502,1.0894681061430844,1.6211059661613403
-2.510344921806502,0.34711928836742156,0.6510601179961955
-2.510344921806502,0.34711928836742156,-1.0914159663944454
-2.510344921806502,0.34711928836742156,0.044340611640748984
-2.510344921806502,0.34711928836742156,1.6211059661613403
-2.510344921806502,0.044340611640748984,0.6510601179961955
-2.510344921806502,0.044340611640748984,-1.0914159663944454
-2.510344921806502,0.044340611640748984,1.6211059661613403
-2.510344921806502,1.6211059661613403,0.6510601179961955
-2.510344921806502,1.6211059661613403,-1.0914159663944454
-2.510344921806502,0.6510601179961955,-1.0914159663944454
-0.10464383773909765,-1.6013257027808325,1.0894681061430844
-0.10464383773909765,-1.6013257027808325,0.34711928836742156
-0.10464383773909765,-1.6013257027808325,0.044340611640748984
-0.10464383773909765,-1.6013257027808325,1.6211059661613403
-0.10464383773909765,-1.6013257027808325,0.6510601179961955
-0.10464383773909765,-1.6013257027808325,-1.0914159663944454
-0.10464383773909765,1.0894681061430844,0.6510601179961955
-0.10464383773909765,1.0894681061430844,-1.0914159663944454
-0.10464383773909765,1.0894681061430844,0.34711928836742156
-0.10464383773909765,1.0894681061430844,0.044340611640748984
-0.10464383773909765,1.0894681061430844,1.6211059661613403
-0.10464383773909765,0.34711928836742156,0.6510601179961955
-0.10464383773909765,0.34711928836742156,-1.0914159663944454
-0.10464383773909765,0.34711928836742156,0.044340611640748984
-0.10464383773909765,0.34711928836742156,1.6211059661613403
-0.10464383773909765,0.044340611640748984,0.6510601179961955
-0.10464383773909765,0.044340611640748984,-1.0914159663944454
-0.10464383773909765,0.044340611640748984,1.6211059661613403
-0.10464383773909765,1.6211059661613403,0.6510601179961955
-0.10464383773909765,1.6211059661613403,-1.0914159663944454
-0.10464383773909765,0.6510601179961955,-1.0914159663944454
-1.6013257027808325,1.0894681061430844,0.6510601179961955
-1.6013257027808325,1.0894681061430844,-1.0914159663944454
-1.6013257027808325,1.0894681061430844,0.34711928836742156
-1.6013257027808325,1.0894681061430844,0.044340611640748984
-1.6013257027808325,1.0894681061430844,1.6211059661613403
-1.6013257027808325,0.34711928836742156,0.6510601179961955
-1.6013257027808325,0.34711928836742156,-1.0914159663944454
-1.6013257027808325,0.34711928836742156,0.044340611640748984
-1.6013257027808325,0.34711928836742156,1.6211059661613403
-1.6013257027808325,0.044340611640748984,0.6510601179961955
-1.6013257027808325,0.044340611640748984,-1.0914159663944454
-1.6013257027808325,0.044340611640748984,1.6211059661613403
-1.6013257027808325,1.6211059661613403,0.6510601179961955
-1.6013257027808325,1.6211059661613403,-1.0914159663944454
-1.6013257027808325,0.6510601179961955,-1.0914159663944454
1.0894681061430844,0.6510601179961955,-1.0914159663944454
1.0894681061430844,0.34711928836742156,0.6510601179961955
1.0894681061430844,0.34711928836742156,-1.0914159663944454
1.0894681061430844,0.34711928836742156,0.044340611640748984
1.0894681061430844,0.34711928836742156,1.6211059661613403
1.0894681061430844,0.044340611640748984,0.6510601179961955
1.0894681061430844,0.044340611640748984,-1.0914159663944454
1.0894681061430844,0.044340611640748984,1.6211059661613403
1.0894681061430844,1.6211059661613403,0.6510601179961955
1.0894681061430844,1.6211059661613403,-1.0914159663944454
0.34711928836742156,0.6510601179961955,-1.0914159663944454
0.34711928836742156,0.044340611640748984,0.6510601179961955
0.34711928836742156,0.044340611640748984,-1.0914159663944454
0.34711928836742156,0.044340611640748984,1.6211059661613403
0.34711928836742156,1.6211059661613403,0.6510601179961955
0.34711928836742156,1.6211059661613403,-1.0914159663944454
0.044340611640748984,0.6510601179961955,-1.0914159663944454
0.044340611640748984,1.6211059661613403,0.6510601179961955
0.044340611640748984,1.6211059661613403,-1.0914159663944454
1.6211059661613403,0.6510601179961955,-1.0914159663944454
