0,1,2
1.8266854061094888,1.5101132346330783,1.3365687442880565
1.8266854061094888,1.5101132346330783,-0.14719198236257888
1.8266854061094888,1.5101132346330783,1.9674883107470231
1.8266854061094888,1.5101132346330783,-0.03473182126526164
1.8266854061094888,1.5101132346330783,0.015481125575919566
1.8266854061094888,1.5101132346330783,0.3994773507372107
1.8266854061094888,1.5101132346330783,-0.6325899434023148
1.8266854061094888,1.5101132346330783,1.7708225469249352
1.8266854061094888,1.3365687442880565,-0.14719198236257888
1.8266854061094888,1.3365687442880565,1.9674883107470231
1.8266854061094888,1.3365687442880565,-0.03473182126526164
1.8266854061094888,1.3365687442880565,0.015481125575919566
1.8266854061094888,1.3365687442880565,0.3994773507372107
1.8266854061094888,1.3365687442880565,-0.6325899434023148
1.8266854061094888,1.3365687442880565,1.7708225469249352
1.8266854061094888,-0.14719198236257888,1.9674883107470231
1.8266854061094888,-0.14719198236257888,-0.03473182126526164
1.8266854061094888,-0.14719198236257888,0.015481125575919566
1.8266854061094888,-0.14719198236257888,0.3994773507372107
1.8266854061094888,-0.14719198236257888,-0.6325899434023148
1.8266854061094888,-0.14719198236257888,1.7708225469249352
1.8266854061094888,1.9674883107470231,-0.6325899434023148
1.8266854061094888,1.9674883107470231,1.7708225469249352
1.8266854061094888,1.9674883107470231,-0.03473182126526164
1.8266854061094888,1.9674883107470231,0.015481125575919566
1.8266854061094888,1.9674883107470231,0.3994773507372107
1.8266854061094888,-0.03473182126526164,-0.6325899434023148
1.8266854061094888,-0.03473182126526164,1.7708225469249352
1.8266854061094888,-0.03473182126526164,0.015481125575919566
1.8266854061094888,-0.03473182126526164,0.3994773507372107
1.8266854061094888,0.015481125575919566,-0.6325899434023148
1.8266854061094888,0.015481125575919566,1.7708225469249352
1.8266854061094888,0.015481125575919566,0.3994773507372107
1.8266854061094888,0.3994773507372107,-0.6325899434023148
1.8266854061094888,0.3994773507372107,1.7708225469249352
1.8266854061094888,-0.6325899434023148,1.7708225469249352
1.5101132346330783,1.3365687442880565,-0.14719198236257888
1.5101132346330783,1.3365687442880565,1.9674883107470231
1.5101132346330783,1.3365687442880565,-0.03473182126526164
1.5101132346330783,1.3365687442880565,0.015481125575919566
1.5101132346330783,1.3365687442880565,0.3994773507372107
1.5101132346330783,1.3365687442880565,-0.6325899434023148
1.5101132346330783,1.3365687442880565,1.7708225469249352
1.5101132346330783,-0.14719198236257888,1.9674883107470231
1.5101132346330783,-0.14719198236257888,-0.03473182126526164
1.5101132346330783,-0.14719198236257888,0.015481125575919566
1.5101132346330783,-0.14719198236257888,0.3994773507372107
1.5101132346330783,-0.14719198236257888,-0.6325899434023148
1.5101132346330783,-0.14719198236257888,1.7708225469249352
1.5101132346330783,1.9674883107470231,-0.6325899434023148
1.5101132346330783,1.9674883107470231,1.7708225469249352
1.5101132346330783,1.9674883107470231,-0.03473182126526164
1.5101132346330783,1.9674883107470231,0.015481125575919566
1.5101132346330783,1.9674883107470231,0.3994773507372107
1.5101132346330783,-0.03473182126526164,-0.6325899434023148
1.5101132346330783,-0.03473182126526164,1.7708225469249352
1.5101132346330783,-0.03473182126526164,0.015481125575919566
1.5101132346330783,-0.03473182126526164,0.3994773507372107
1.5101132346330783,0.015481125575919566,-0.6325899434023148
1.5101132346330783,0.015481125575919566,1.7708225469249352
1.5101132346330783,0.015481125575919566,0.3994773507372107
1.5101132346330783,0.3994773507372107,-0.6325899434023148
1.5101132346330783,0.3994773507372107,1.7708225469249352
1.5101132346330783,-0.6325899434023148,1.7708225469249352
1.3365687442880565,-0.14719198236257888,1.9674883107470231
1.3365687442880565,-0.14719198236257888,-0.03473182126526164
1.3365687442880565,-0.14719198236257888,0.015481125575919566
1.3365687442880565,-0.14719198236257888,0.3994773507372107
1.3365687442880565,-0.14719198236257888,-0.6325899434023148
1.3365687442880565,-0.14719198236257888,1.7708225469249352
1.3365687442880565,1.9674883107470231,-0.6325899434023148
1.3365687442880565,1.9674883107470231,1.7708225469249352
1.3365687442880565,1.9674883107470231,-0.03473182126526164
1.3365687442880565,1.9674883107470231,0.015481125575919566
1.3365687442880565,1.9674883107470231,0.3994773507372107
1.3365687442880565,-0.03473182126526164,-0.6325899434023148
1.3365687442880565,-0.03473182126526164,1.7708225469249352
1.3365687442880565,-0.03473182126526164,0.015481125575919566
1.3365687442880565,-0.03473182126526164,0.3994773507372107
1.3365687442880565,0.015481125575919566,-0.6325899434023148
1.3365687442880565,0.015481125575919566,1.7708225469249352
1.3365687442880565,0.015481125575919566,0.3994773507372107
1.3365687442880565,0.3994773507372107,-0.6325899434023148
1.3365687442880565,0.3994773507372107,1.7708225469249352
1.3365687442880565,-0.6325899434023148,1.7708225469249352
-0.14719198236257888,1.9674883107470231,-0.6325899434023148
-0.14719198236257888,1.9674883107470231,1.7708225469249352
-0.14719198236257888,1.9674883107470231,-0.03473182126526164
-0.14719198236257888,1.9674883107470231,0.015481125575919566
-0.14719198236257888,1.9674883107470231,0.3994773507372107
-0.14719198236257888,-0.03473182126526164,-0.6325899434023148
-0.14719198236257888,-0.03473182126526164,1.7708225469249352
-0.14719198236257888,-0.03473182126526164,0.015481125575919566
-0.14719198236257888,-0.03473182126526164,0.3994773507372107
-0.14719198236257888,0.015481125575919566,-0.6325899434023148
-0.14719198236257888,0.015481125575919566,1.7708225469249352
-0.14719198236257888,0.015481125575919566,0.3994773507372107
-0.14719198236257888,0.3994773507372107,-0.6325899434023148
-0.14719198236257888,0.3994773507372107,1.7708225469249352
-0.14719198236257888,-0.6325899434023148,1.7708225469249352
1.9674883107470231,-0.6325899434023148,1.7708225469249352
1.9674883107470231,-0.03473182126526164,-0.6325899434023148
1.9674883107470231,-0.03473182126526164,1.7708225469249352
1.9674883107470231,-0.03473182126526164,0.015481125575919566
1.9674883107470231,-0.03473182126526164,0.3994773507372107
1.9674883107470231,0.015481125575919566,-0.6325899434023148
1.9674883107470231,0.015481125575919566,1.7708225469249352
1.9674883107470231,0.015481125575919566,0.3994773507372107
1.9674883107470231,0.3994773507372107,-0.6325899434023148
1.9674883107470231,0.3994773507372107,1.7708225469249352
-0.03473182126526164,-0.6325899434023148,1.7708225469249352
-0.03473182126526164,0.015481125575919566,-0.6325899434023148
-0.03473182126526164,0.015481125575919566,1.7708225469249352
-0.03473182126526164,0.015481125575919566,0.3994773507372107
-0.03473182126526164,0.3994773507372107,-0.6325899434023148
-0.03473182126526164,0.3994773507372107,1.7708225469249352
0.015481125575919566,-0.6325899434023148,1.7708225469249352
0.015481125575919566,0.3994773507372107,-0.6325899434023148
0.015481125575919566,0.3994773507372107,1.7708225469249352
0.3994773507372107,-0.6325899434023148,1.7708225469249352
