0,1,2
-0.8234701971395639,0.1351196401027854,-0.6358684108015572
-0.8234701971395639,0.1351196401027854,0.0002750457012211081
-0.8234701971395639,0.1351196401027854,-0.28678032904012324
-0.8234701971395639,0.1351196401027854,-1.3072903568762226
-0.8234701971395639,0.1351196401027854,1.3792577485642614
-0.8234701971395639,0.1351196401027854,-0.09125432772185262
-0.8234701971395639,0.1351196401027854,1.5945095034953982
-0.8234701971395639,0.1351196401027854,-0.5532506549069706
-0.8234701971395639,-0.6358684108015572,0.0002750457012211081
-0.8234701971395639,-0.6358684108015572,-0.28678032904012324
-0.8234701971395639,-0.6358684108015572,-1.3072903568762226
-0.8234701971395639,-0.6358684108015572,1.3792577485642614
-0.8234701971395639,-0.6358684108015572,-0.09125432772185262
-0.8234701971395639,-0.6358684108015572,1.5945095034953982
-0.8234701971395639,-0.6358684108015572,-0.5532506549069706
-0.8234701971395639,0.0002750457012211081,-0.28678032904012324
-0.8234701971395639,0.0002750457012211081,-1.3072903568762226
-0.8234701971395639,0.0002750457012211081,1.3792577485642614
-0.8234701971395639,0.0002750457012211081,-0.09125432772185262
-0.8234701971395639,0.0002750457012211081,1.5945095034953982
-0.8234701971395639,0.0002750457012211081,-0.5532506549069706
-0.8234701971395639,-0.28678032904012324,1.5945095034953982
-0.8234701971395639,-0.28678032904012324,-0.5532506549069706
-0.8234701971395639,-0.28678032904012324,-1.3072903568762226
-0.8234701971395639,-0.28678032904012324,1.3792577485642614
-0.8234701971395639,-0.28678032904012324,-0.09125432772185262
-0.8234701971395639,-1.3072903568762226,1.5945095034953982
-0.8234701971395639,-1.3072903568762226,-0.5532506549069706
-0.8234701971395639,-1.3072903568762226,1.3792577485642614
-0.8234701971395639,-1.3072903568762226,-0.09125432772185262
-0.8234701971395639,1.3792577485642614,1.5945095034953982
-0.8234701971395639,1.3792577485642614,-0.5532506549069706
-0.8234701971395639,1.3792577485642614,-0.09125432772185262
-0.8234701971395639,-0.09125432772185262,1.5945095034953982
-0.8234701971395639,-0.09125432772185262,-0.5532506549069706
-0.8234701971395639,1.5945095034953982,-0.5532506549069706
0.1351196401027854,-0.6358684108015572,0.0002750457012211081
0.1351196401027854,-0.6358684108015572,-0.28678032904012324
0.1351196401027854,-0.6358684108015572,-1.3072903568762226
0.1351196401027854,-0.6358684108015572,1.3792577485642614
0.1351196401027854,-0.6358684108015572,-0.09125432772185262
0.1351196401027854,-0.6358684108015572,1.5945095034953982
0.1351196401027854,-0.6358684108015572,-0.5532506549069706
0.1351196401027854,0.0002750457012211081,-0.28678032904012324
0.1351196401027854,0.0002750457012211081,-1.3072903568762226
0.1351196401027854,0.0002750457012211081,1.3792577485642614
0.1351196401027854,0.0002750457012211081,-0.09125432772185262
0.1351196401027854,0.0002750457012211081,1.5945095034953982
0.1351196401027854,0.0002750457012211081,-0.5532506549069706
0.1351196401027854,-0.28678032904012324,1.5945095034953982
0.1351196401027854,-0.28678032904012324,-0.5532506549069706
0.1351196401027854,-0.28678032904012324,-1.3072903568762226
0.1351196401027854,-0.28678032904012324,1.3792577485642614
0.1351196401027854,-0.28678032904012324,-0.09125432772185262
0.1351196401027854,-1.3072903568762226,1.5945095034953982
0.1351196401027854,-1.3072903568762226,-0.5532506549069706
0.1351196401027854,-1.3072903568762226,1.3792577485642614
0.1351196401027854,-1.3072903568762226,-0.09125432772185262
0.1351196401027854,1.3792577485642614,1.5945095034953982
0.1351196401027854,1.3792577485642614,-0.5532506549069706
0.1351196401027854,1.3792577485642614,-0.09125432772185262
0.1351196401027854,-0.09125432772185262,1.5945095034953982
0.1351196401027854,-0.09125432772185262,-0.5532506549069706
0.1351196401027854,1.5945095034953982,-0.5532506549069706
-0.6358684108015572,0.0002750457012211081,-0.28678032904012324
-0.6358684108015572,0.0002750457012211081,-1.3072903568762226
-0.6358684108015572,0.0002750457012211081,1.3792577485642614
-0.6358684108015572,0.0002750457012211081,-0.09125432772185262
-0.6358684108015572,0.0002750457012211081,1.5945095034953982
-0.6358684108015572,0.0002750457012211081,-0.5532506549069706
-0.6358684108015572,-0.28678032904012324,1.5945095034953982
-0.6358684108015572,-0.28678032904012324,-0.5532506549069706
-0.6358684108015572,-0.28678032904012324,-1.3072903568762226
-0.6358684108015572,-0.28678032904012324,1.3792577485642614
-0.6358684108015572,-0.28678032904012324,-0.09125432772185262
-0.6358684108015572,-1.3072903568762226,1.5945095034953982
-0.6358684108015572,-1.3072903568762226,-0.5532506549069706
-0.6358684108015572,-1.3072903568762226,1.3792577485642614
-0.6358684108015572,-1.3072903568762226,-0.09125432772185262
-0.6358684108015572,1.3792577485642614,1.5945095034953982
-0.6358684108015572,1.3792577485642614,-0.5532506549069706
-0.6358684108015572,1.3792577485642614,-0.09125432772185262
-0.6358684108015572,-0.09125432772185262,1.5945095034953982
-0.6358684108015572,-0.09125432772185262,-0.5532506549069706
-0.6358684108015572,1.5945095034953982,-0.5532506549069706
0.0002750457012211081,-0.28678032904012324,1.5945095034953982
0.0002750457012211081,-0.28678032904012324,-0.5532506549069706
0.0002750457012211081,-0.28678032904012324,-1.3072903568762226
0.0002750457012211081,-0.28678032904012324,1.3792577485642614
0.0002750457012211081,-0.28678032904012324,-0.09125432772185262
0.0002750457012211081,-1.3072903568762226,1.5945095034953982
0.0002750457012211081,-1.3072903568762226,-0.5532506549069706
0.0002750457012211081,-1.3072903568762226,1.3792577485642614
0.0002750457012211081,-1.3072903568762226,-0.09125432772185262
0.0002750457012211081,1.3792577485642614,1.5945095034953982
0.0002750457012211081,1.3792577485642614,-0.5532506549069706
0.0002750457012211081,1.3792577485642614,-0.09125432772185262
0.0002750457012211081,-0.09125432772185262,1.5945095034953982
0.0002750457012211081,-0.09125432772185262,-0.5532506549069706
0.0002750457012211081,1.5945095034953982,-0.5532506549069706
-0.28678032904012324,1.5945095034953982,-0.5532506549069706
-0.28678032904012324,-1.3072903568762226,1.5945095034953982
-0.28678032904012324,-1.3072903568762226,-0.5532506549069706
-0.28678032904012324,-1.3072903568762226,1.3792577485642614
-0.28678032904012324,-1.3072903568762226,-0.09125432772185262
-0.28678032904012324,1.3792577485642614,1.5945095034953982
-0.28678032904012324,1.3792577485642614,-0.5532506549069706
-0.28678032904012324,1.3792577485642614,-0.09125432772185262
-0.28678032904012324,-0.09125432772185262,1.5945095034953982
-0.28678032904012324,-0.09125432772185262,-0.5532506549069706
-1.3072903568762226,1.5945095034953982,-0.5532506549069706
-1.3072903568762226,1.3792577485642614,1.5945095034953982
-1.3072903568762226,1.3792577485642614,-0.5532506549069706
-1.3072903568762226,1.3792577485642614,-0.09125432772185262
-1.3072903568762226,-0.09125432772185262,1.5945095034953982
-1.3072903568762226,-0.09125432772185262,-0.5532506549069706
1.3792577485642614,1.5945095034953982,-0.5532506549069706
1.3792577485642614,-0.09125432772185262,1.5945095034953982
1.3792577485642614,-0.09125432772185262,-0.5532506549069706
-0.09125432772185262,1.5945095034953982,-0.5532506549069706
