0,1,2
-1.665078207310736,0.9400119944519704,0.07600797522962893
-1.665078207310736,0.9400119944519704,0.3266026515593381
-1.665078207310736,0.9400119944519704,-0.9971887494357526
-1.665078207310736,0.9400119944519704,-1.2390444915387175
-1.665078207310736,0.9400119944519704,0.543274202388526
-1.665078207310736,0.9400119944519704,0.5918971700829233
-1.665078207310736,0.9400119944519704,0.08085163889400569
-1.665078207310736,0.9400119944519704,0.5208250825209856
-1.665078207310736,0.07600797522962893,0.3266026515593381
-1.665078207310736,0.07600797522962893,-0.9971887494357526
-1.665078207310736,0.07600797522962893,-1.2390444915387175
-1.665078207310736,0.07600797522962893,0.543274202388526
-1.665078207310736,0.07600797522962893,0.5918971700829233
-1.665078207310736,0.07600797522962893,0.08085163889400569
-1.665078207310736,0.07600797522962893,0.5208250825209856
-1.665078207310736,0.3266026515593381,-0.9971887494357526
-1.665078207310736,0.3266026515593381,-1.2390444915387175
-1.665078207310736,0.3266026515593381,0.543274202388526
-1.665078207310736,0.3266026515593381,0.5918971700829233
-1.665078207310736,0.3266026515593381,0.08085163889400569
-1.665078207310736,0.3266026515593381,0.5208250825209856
-1.665078207310736,-0.9971887494357526,0.08085163889400569
-1.665078207310736,-0.9971887494357526,0.5208250825209856
-1.665078207310736,-0.9971887494357526,-1.2390444915387175
-1.665078207310736,-0.9971887494357526,0.543274202388526
-1.665078207310736,-0.9971887494357526,0.5918971700829233
-1.665078207310736,-1.2390444915387175,0.08085163889400569
-1.665078207310736,-1.2390444915387175,0.5208250825209856
-1.665078207310736,-1.2390444915387175,0.543274202388526
-1.665078207310736,-1.2390444915387175,0.5918971700829233
-1.665078207310736,0.543274202388526,0.08085163889400569
-1.665078207310736,0.543274202388526,0.5208250825209856
-1.665078207310736,0.543274202388526,0.5918971700829233
-1.665078207310736,0.5918971700829233,0.08085163889400569
-1.665078207310736,0.5918971700829233,0.5208250825209856
-1.665078207310736,0.08085163889400569,0.5208250825209856
0.9400119944519704,0.07600797522962893,0.3266026515593381
0.9400119944519704,0.07600797522962893,-0.9971887494357526
0.9400119944519704,0.07600797522962893,-1.2390444915387175
0.9400119944519704,0.07600797522962893,0.543274202388526
0.9400119944519704,0.07600797522962893,0.5918971700829233
0.9400119944519704,0.07600797522962893,0.08085163889400569
0.9400119944519704,0.07600797522962893,0.5208250825209856
0.9400119944519704,0.3266026515593381,-0.9971887494357526
0.9400119944519704,0.3266026515593381,-1.2390444915387175
0.9400119944519704,0.3266026515593381,0.543274202388526
0.9400119944519704,0.3266026515593381,0.5918971700829233
0.9400119944519704,0.3266026515593381,0.08085163889400569
0.9400119944519704,0.3266026515593381,0.5208250825209856
0.9400119944519704,-0.9971887494357526,0.08085163889400569
0.9400119944519704,-0.9971887494357526,0.5208250825209856
0.9400119944519704,-0.9971887494357526,-1.2390444915387175
0.9400119944519704,-0.9971887494357526,0.543274202388526
0.9400119944519704,-0.9971887494357526,0.5918971700829233
0.9400119944519704,-1.2390444915387175,0.08085163889400569
0.9400119944519704,-1.2390444915387175,0.5208250825209856
0.9400119944519704,-1.2390444915387175,0.543274202388526
0.9400119944519704,-1.2390444915387175,0.5918971700829233
0.9400119944519704,0.543274202388526,0.08085163889400569
0.9400119944519704,0.543274202388526,0.5208250825209856
0.9400119944519704,0.543274202388526,0.5918971700829233
0.9400119944519704,0.5918971700829233,0.08085163889400569
0.9400119944519704,0.5918971700829233,0.5208250825209856
0.9400119944519704,0.08085163889400569,0.5208250825209856
0.07600797522962893,0.3266026515593381,-0.9971887494357526
0.07600797522962893,0.3266026515593381,-1.2390444915387175
0.07600797522962893,0.3266026515593381,0.543274202388526
0.07600797522962893,0.3266026515593381,0.5918971700829233
0.07600797522962893,0.3266026515593381,0.08085163889400569
0.07600797522962893,0.3266026515593381,0.5208250825209856
0.07600797522962893,-0.9971887494357526,0.08085163889400569
0.07600797522962893,-0.9971887494357526,0.5208250825209856
0.07600797522962893,-0.9971887494357526,-1.2390444915387175
0.07600797522962893,-0.9971887494357526,0.543274202388526
0.07600797522962893,-0.9971887494357526,0.5918971700829233
0.07600797522962893,-1.2390444915387175,0.08085163889400569
0.07600797522962893,-1.2390444915387175,0.5208250825209856
0.07600797522962893,-1.2390444915387175,0.543274202388526
0.07600797522962893,-1.2390444915387175,0.5918971700829233
0.07600797522962893,0.543274202388526,0.08085163889400569
0.07600797522962893,0.543274202388526,0.5208250825209856
0.07600797522962893,0.543274202388526,0.5918971700829233
0.07600797522962893,0.5918971700829233,0.08085163889400569
0.07600797522962893,0.5918971700829233,0.5208250825209856
0.07600797522962893,0.08085163889400569,0.5208250825209856
0.3266026515593381,-0.9971887494357526,0.08085163889400569
0.3266026515593381,-0.9971887494357526,0.5208250825209856
0.3266026515593381,-0.9971887494357526,-1.2390444915387175
0.3266026515593381,-0.9971887494357526,0.543274202388526
0.3266026515593381,-0.9971887494357526,0.5918971700829233
0.3266026515593381,-1.2390444915387175,0.08085163889400569
0.3266026515593381,-1.2390444915387175,0.5208250825209856
0.3266026515593381,-1.2390444915387175,0.543274202388526
0.3266026515593381,-1.2390444915387175,0.5918971700829233
0.3266026515593381,0.543274202388526,0.08085163889400569
0.3266026515593381,0.543274202388526,0.5208250825209856
0.3266026515593381,0.543274202388526,0.5918971700829233
0.3266026515593381,0.5918971700829233,0.08085163889400569
0.3266026515593381,0.5918971700829233,0.5208250825209856
0.3266026515593381,0.08085163889400569,0.5208250825209856
-0.9971887494357526,0.08085163889400569,0.5208250825209856
-0.9971887494357526,-1.2390444915387175,0.08085163889400569
-0.9971887494357526,-1.2390444915387175,0.5208250825209856
-0.9971887494357526,-1.2390444915387175,0.543274202388526
-0.9971887494357526,-1.2390444915387175,0.5918971700829233
-0.9971887494357526,0.543274202388526,0.08085163889400569
-0.9971887494357526,0.543274202388526,0.5208250825209856
-0.9971887494357526,0.543274202388526,0.5918971700829233
-0.9971887494357526,0.5918971700829233,0.08085163889400569
-0.9971887494357526,0.5918971700829233,0.5208250825209856
-1.2390444915387175,0.08085163889400569,0.5208250825209856
-1.2390444915387175,0.543274202388526,0.08085163889400569
-1.2390444915387175,0.543274202388526,0.5208250825209856
-1.2390444915387175,0.543274202388526,0.5918971700829233
-1.2390444915387175,0.5918971700829233,0.08085163889400569
-1.2390444915387175,0.5918971700829233,0.5208250825209856
0.543274202388526,0.08085163889400569,0.5208250825209856
0.543274202388526,0.5918971700829233,0.08085163889400569
0.543274202388526,0.5918971700829233,0.5208250825209856
0.5918971700829233,0.08085163889400569,0.5208250825209856
