0,1,2
-1.259568438405861,-1.3121473967951938,1.9005369377806949
-1.259568438405861,-1.3121473967951938,-0.22598731344602654
-1.259568438405861,-1.3121473967951938,0.7633587548157481
-1.259568438405861,-1.3121473967951938,-0.16579250343192523
-1.259568438405861,-1.3121473967951938,-0.19023159257475064
-1.259568438405861,-1.3121473967951938,-0.24216203077685616
-1.259568438405861,-1.3121473967951938,-0.2673278630468453
-1.259568438405861,-1.3121473967951938,-1.0259587153156196
-1.259568438405861,1.9005369377806949,-0.22598731344602654
-1.259568438405861,1.9005369377806949,0.7633587548157481
-1.259568438405861,1.9005369377806949,-0.16579250343192523
-1.259568438405861,1.9005369377806949,-0.19023159257475064
-1.259568438405861,1.9005369377806949,-0.24216203077685616
-1.259568438405861,1.9005369377806949,-0.2673278630468453
-1.259568438405861,1.9005369377806949,-1.0259587153156196
-1.259568438405861,-0.22598731344602654,0.7633587548157481
-1.259568438405861,-0.22598731344602654,-0.16579250343192523
-1.259568438405861,-0.22598731344602654,-0.19023159257475064
-1.259568438405861,-0.22598731344602654,-0.24216203077685616
-1.259568438405861,-0.22598731344602654,-0.2673278630468453
-1.259568438405861,-0.22598731344602654,-1.0259587153156196
-1.259568438405861,0.7633587548157481,-0.2673278630468453
-1.259568438405861,0.7633587548157481,-1.0259587153156196
-1.259568438405861,0.7633587548157481,-0.16579250343192523
-1.259568438405861,0.7633587548157481,-0.19023159257475064
-1.259568438405861,0.7633587548157481,-0.24216203077685616
-1.259568438405861,-0.16579250343192523,-0.2673278630468453
-1.259568438405861,-0.16579250343192523,-1.0259587153156196
-1.259568438405861,-0.16579250343192523,-0.19023159257475064
-1.259568438405861,-0.16579250343192523,-0.24216203077685616
-1.259568438405861,-0.19023159257475064,-0.2673278630468453
-1.259568438405861,-0.19023159257475064,-1.0259587153156196
-1.259568438405861,-0.19023159257475064,-0.24216203077685616
-1.259568438405861,-0.24216203077685616,-0.2673278630468453
-1.259568438405861,-0.24216203077685616,-1.0259587153156196
-1.259568438405861,-0.2673278630468453,-1.0259587153156196
-1.3121473967951938,1.9005369377806949,-0.22598731344602654
-1.3121473967951938,1.9005369377806949,0.7633587548157481
-1.3121473967951938,1.9005369377806949,-0.16579250343192523
-1.3121473967951938,1.9005369377806949,-0.19023159257475064
-1.3121473967951938,1.9005369377806949,-0.24216203077685616
-1.3121473967951938,1.9005369377806949,-0.2673278630468453
-1.3121473967951938,1.9005369377806949,-1.0259587153156196
-1.3121473967951938,-0.22598731344602654,0.7633587548157481
-1.3121473967951938,-0.22598731344602654,-0.16579250343192523
-1.3121473967951938,-0.22598731344602654,-0.19023159257475064
-1.3121473967951938,-0.22598731344602654,-0.24216203077685616
-1.3121473967951938,-0.22598731344602654,-0.2673278630468453
-1.3121473967951938,-0.22598731344602654,-1.0259587153156196
-1.3121473967951938,0.7633587548157481,-0.2673278630468453
-1.3121473967951938,0.7633587548157481,-1.0259587153156196
-1.3121473967951938,0.7633587548157481,-0.16579250343192523
-1.3121473967951938,0.7633587548157481,-0.19023159257475064
-1.3121473967951938,0.7633587548157481,-0.24216203077685616
-1.3121473967951938,-0.16579250343192523,-0.2673278630468453
-1.3121473967951938,-0.16579250343192523,-1.0259587153156196
-1.3121473967951938,-0.16579250343192523,-0.19023159257475064
-1.3121473967951938,-0.16579250343192523,-0.24216203077685616
-1.3121473967951938,-0.19023159257475064,-0.2673278630468453
-1.3121473967951938,-0.19023159257475064,-1.0259587153156196
-1.3121473967951938,-0.19023159257475064,-0.24216203077685616
-1.3121473967951938,-0.24216203077685616,-0.2673278630468453
-1.3121473967951938,-0.24216203077685616,-1.0259587153156196
-1.3121473967951938,-0.2673278630468453,-1.0259587153156196
1.9005369377806949,-0.22598731344602654,0.7633587548157481
1.9005369377806949,-0.22598731344602654,-0.16579250343192523
1.9005369377806949,-0.22598731344602654,-0.19023159257475064
1.9005369377806949,-0.22598731344602654,-0.24216203077685616
1.9005369377806949,-0.22598731344602654,-0.2673278630468453
1.9005369377806949,-0.22598731344602654,-1.0259587153156196
1.9005369377806949,0.7633587548157481,-0.2673278630468453
1.9005369377806949,0.7633587548157481,-1.0259587153156196
1.9005369377806949,0.7633587548157481,-0.16579250343192523
1.9005369377806949,0.7633587548157481,-0.19023159257475064
1.9005369377806949,0.7633587548157481,-0.24216203077685616
1.9005369377806949,-0.16579250343192523,-0.2673278630468453
1.9005369377806949,-0.16579250343192523,-1.0259587153156196
1.9005369377806949,-0.16579250343192523,-0.19023159257475064
1.9005369377806949,-0.16579250343192523,-0.24216203077685616
1.9005369377806949,-0.19023159257475064,-0.2673278630468453
1.9005369377806949,-0.19023159257475064,-1.0259587153156196
1.9005369377806949,-0.19023159257475064,-0.24216203077685616
1.9005369377806949,-0.24216203077685616,-0.2673278630468453
1.9005369377806949,-0.24216203077685616,-1.0259587153156196
1.9005369377806949,-0.2673278630468453,-1.0259587153156196
-0.22598731344602654,0.7633587548157481,-0.2673278630468453
-0.22598731344602654,0.7633587548157481,-1.0259587153156196
-0.22598731344602654,0.7633587548157481,-0.16579250343192523
-0.22598731344602654,0.7633587548157481,-0.19023159257475064
-0.22598731344602654,0.7633587548157481,-0.24216203077685616
-0.22598731344602654,-0.16579250343192523,-0.2673278630468453
-0.22598731344602654,-0.16579250343192523,-1.0259587153156196
-0.22598731344602654,-0.16579250343192523,-0.19023159257475064
-0.22598731344602654,-0.16579250343192523,-0.24216203077685616
-0.22598731344602654,-0.19023159257475064,-0.2673278630468453
-0.22598731344602654,-0.19023159257475064,-1.0259587153156196
-0.22598731344602654,-0.19023159257475064,-0.24216203077685616
-0.22598731344602654,-0.24216203077685616,-0.2673278630468453
-0.22598731344602654,-0.24216203077685616,-1.0259587153156196
-0.22598731344602654,-0.2673278630468453,-1.0259587153156196
0.7633587548157481,-0.2673278630468453,-1.0259587153156196
0.7633587548157481,-0.16579250343192523,-0.2673278630468453
0.7633587548157481,-0.16579250343192523,-1.0259587153156196
0.7633587548157481,-0.16579250343192523,-0.19023159257475064
0.7633587548157481,-0.16579250343192523,-0.24216203077685616
0.7633587548157481,-0.19023159257475064,-0.2673278630468453
0.7633587548157481,-0.19023159257475064,-1.0259587153156196
0.7633587548157481,-0.19023159257475064,-0.24216203077685616
0.7633587548157481,-0.24216203077685616,-0.2673278630468453
0.7633587548157481,-0.24216203077685616,-1.0259587153156196
-0.16579250343192523,-0.2673278630468453,-1.0259587153156196
-0.16579250343192523,-0.19023159257475064,-0.2673278630468453
-0.16579250343192523,-0.19023159257475064,-1.0259587153156196
-0.16579250343192523,-0.19023159257475064,-0.24216203077685616
-0.16579250343192523,-0.24216203077685616,-0.2673278630468453
-0.16579250343192523,-0.24216203077685616,-1.0259587153156196
-0.19023159257475064,-0.2673278630468453,-1.0259587153156196
-0.19023159257475064,-0.24216203077685616,-0.2673278630468453
-0.19023159257475064,-0.24216203077685616,-1.0259587153156196
-0.24216203077685616,-0.2673278630468453,-1.0259587153156196
