0,1,2
-4.591424021524787,0.8888260634009226,-0.9836546646823847
-4.591424021524787,0.8888260634009226,1.825328446276048
-4.591424021524787,0.8888260634009226,2.269336012418546
-4.591424021524787,0.8888260634009226,-1.717272841680754
-4.591424021524787,0.8888260634009226,-1.4935856839674144
-4.591424021524787,0.8888260634009226,-2.0977889545225237
-4.591424021524787,0.8888260634009226,3.2584177531373313
-4.591424021524787,0.8888260634009226,1.3655709472124804
-4.591424021524787,-0.9836546646823847,1.825328446276048
-4.591424021524787,-0.9836546646823847,2.269336012418546
-4.591424021524787,-0.9836546646823847,-1.717272841680754
-4.591424021524787,-0.9836546646823847,-1.4935856839674144
-4.591424021524787,-0.9836546646823847,-2.0977889545225237
-4.591424021524787,-0.9836546646823847,3.2584177531373313
-4.591424021524787,-0.9836546646823847,1.3655709472124804
-4.591424021524787,1.825328446276048,2.269336012418546
-4.591424021524787,1.825328446276048,-1.717272841680754
-4.591424021524787,1.825328446276048,-1.4935856839674144
-4.591424021524787,1.825328446276048,-2.0977889545225237
-4.591424021524787,1.825328446276048,3.2584177531373313
-4.591424021524787,1.825328446276048,1.3655709472124804
-4.591424021524787,2.269336012418546,3.2584177531373313
-4.591424021524787,2.269336012418546,1.3655709472124804
-4.591424021524787,2.269336012418546,-1.717272841680754
-4.591424021524787,2.269336012418546,-1.4935856839674144
-4.591424021524787,2.269336012418546,-2.0977889545225237
-4.591424021524787,-1.717272841680754,3.2584177531373313
-4.591424021524787,-1.717272841680754,1.3655709472124804
-4.591424021524787,-1.717272841680754,-1.4935856839674144
-4.591424021524787,-1.717272841680754,-2.0977889545225237
-4.591424021524787,-1.4935856839674144,3.2584177531373313
-4.591424021524787,-1.4935856839674144,1.3655709472124804
-4.591424021524787,-1.4935856839674144,-2.0977889545225237
-4.591424021524787,-2.0977889545225237,3.2584177531373313
-4.591424021524787,-2.0977889545225237,1.3655709472124804
-4.591424021524787,3.2584177531373313,1.3655709472124804
0.8888260634009226,-0.9836546646823847,1.825328446276048
0.8888260634009226,-0.9836546646823847,2.269336012418546
0.8888260634009226,-0.9836546646823847,-1.717272841680754
0.8888260634009226,-0.9836546646823847,-1.4935856839674144
0.8888260634009226,-0.9836546646823847,-2.0977889545225237
0.8888260634009226,-0.9836546646823847,3.2584177531373313
0.8888260634009226,-0.9836546646823847,1.3655709472124804
0.8888260634009226,1.825328446276048,2.269336012418546
0.8888260634009226,1.825328446276048,-1.717272841680754
0.8888260634009226,1.825328446276048,-1.4935856839674144
0.8888260634009226,1.825328446276048,-2.0977889545225237
0.8888260634009226,1.825328446276048,3.2584177531373313
0.8888260634009226,1.825328446276048,1.3655709472124804
0.8888260634009226,2.269336012418546,3.2584177531373313
0.8888260634009226,2.269336012418546,1.3655709472124804
0.8888260634009226,2.269336012418546,-1.717272841680754
0.8888260634009226,2.269336012418546,-1.4935856839674144
0.8888260634009226,2.269336012418546,-2.0977889545225237
0.8888260634009226,-1.717272841680754,3.2584177531373313
0.8888260634009226,-1.717272841680754,1.3655709472124804
0.8888260634009226,-1.717272841680754,-1.4935856839674144
0.8888260634009226,-1.717272841680754,-2.0977889545225237
0.8888260634009226,-1.4935856839674144,3.2584177531373313
0.8888260634009226,-1.4935856839674144,1.3655709472124804
0.8888260634009226,-1.4935856839674144,-2.0977889545225237
0.8888260634009226,-2.0977889545225237,3.2584177531373313
0.8888260634009226,-2.0977889545225237,1.3655709472124804
0.8888260634009226,3.2584177531373313,1.3655709472124804
-0.9836546646823847,1.825328446276048,2.269336012418546
-0.9836546646823847,1.825328446276048,-1.717272841680754
-0.9836546646823847,1.825328446276048,-1.4935856839674144
-0.9836546646823847,1.825328446276048,-2.0977889545225237
-0.9836546646823847,1.825328446276048,3.2584177531373313
-0.9836546646823847,1.825328446276048,1.3655709472124804
-0.9836546646823847,2.269336012418546,3.2584177531373313
-0.9836546646823847,2.269336012418546,1.3655709472124804
-0.9836546646823847,2.269336012418546,-1.717272841680754
-0.9836546646823847,2.269336012418546,-1.4935856839674144
-0.9836546646823847,2.269336012418546,-2.0977889545225237
-0.9836546646823847,-1.717272841680754,3.2584177531373313
-0.9836546646823847,-1.717272841680754,1.3655709472124804
-0.9836546646823847,-1.717272841680754,-1.4935856839674144
-0.9836546646823847,-1.717272841680754,-2.0977889545225237
-0.9836546646823847,-1.4935856839674144,3.2584177531373313
-0.9836546646823847,-1.4935856839674144,1.3655709472124804
-0.9836546646823847,-1.4935856839674144,-2.0977889545225237
-0.9836546646823847,-2.0977889545225237,3.2584177531373313
-0.9836546646823847,-2.0977889545225237,1.3655709472124804
-0.9836546646823847,3.2584177531373313,1.3655709472124804
1.825328446276048,2.269336012418546,3.2584177531373313
1.825328446276048,2.269336012418546,1.3655709472124804
1.825328446276048,2.269336012418546,-1.717272841680754
1.825328446276048,2.269336012418546,-1.4935856839674144
1.825328446276048,2.269336012418546,-2.0977889545225237
1.825328446276048,-1.717272841680754,3.2584177531373313
1.825328446276048,-1.717272841680754,1.3655709472124804
1.825328446276048,-1.717272841680754,-1.4935856839674144
1.825328446276048,-1.717272841680754,-2.0977889545225237
1.825328446276048,-1.4935856839674144,3.2584177531373313
1.825328446276048,-1.4935856839674144,1.3655709472124804
1.825328446276048,-1.4935856839674144,-2.0977889545225237
1.825328446276048,-2.0977889545225237,3.2584177531373313
1.825328446276048,-2.0977889545225237,1.3655709472124804
1.825328446276048,3.2584177531373313,1.3655709472124804
2.269336012418546,3.2584177531373313,1.3655709472124804
2.269336012418546,-1.717272841680754,3.2584177531373313
2.269336012418546,-1.717272841680754,1.3655709472124804
2.269336012418546,-1.717272841680754,-1.4935856839674144
2.269336012418546,-1.717272841680754,-2.0977889545225237
2.269336012418546,-1.4935856839674144,3.2584177531373313
2.269336012418546,-1.4935856839674144,1.3655709472124804
2.269336012418546,-1.4935856839674144,-2.0977889545225237
2.269336012418546,-2.0977889545225237,3.2584177531373313
2.269336012418546,-2.0977889545225237,1.3655709472124804
-1.717272841680754,3.2584177531373313,1.3655709472124804
-1.717272841680754,-1.4935856839674144,3.2584177531373313
-1.717272841680754,-1.4935856839674144,1.3655709472124804
-1.717272841680754,-1.4935856839674144,-2.0977889545225237
-1.717272841680754,-2.0977889545225237,3.2584177531373313
-1.717272841680754,-2.0977889545225237,1.3655709472124804
-1.4935856839674144,3.2584177531373313,1.3655709472124804
-1.4935856839674144,-2.0977889545225237,3.2584177531373313
-1.4935856839674144,-2.0977889545225237,1.3655709472124804
-2.0977889545225237,3.2584177531373313,1.3655709472124804
