0,1,2
-0.8149979667956797,-1.8945115381265611,1.5559730753146175
-0.8149979667956797,-1.8945115381265611,-0.4448744545614795
-0.8149979667956797,-1.8945115381265611,1.501086709634931
-0.8149979667956797,-1.8945115381265611,-2.446653815980271
-0.8149979667956797,-1.8945115381265611,-0.6636198742759654
-0.8149979667956797,-1.8945115381265611,-1.4037717149545508
-0.8149979667956797,-1.8945115381265611,0.38347724101034253
-0.8149979667956797,-1.8945115381265611,1.2089177619042542
-0.8149979667956797,1.5559730753146175,-0.4448744545614795
-0.8149979667956797,1.5559730753146175,1.501086709634931
-0.8149979667956797,1.5559730753146175,-2.446653815980271
-0.8149979667956797,1.5559730753146175,-0.6636198742759654
-0.8149979667956797,1.5559730753146175,-1.4037717149545508
-0.8149979667956797,1.5559730753146175,0.38347724101034253
-0.8149979667956797,1.5559730753146175,1.2089177619042542
-0.8149979667956797,-0.4448744545614795,1.501086709634931
-0.8149979667956797,-0.4448744545614795,-2.446653815980271
-0.8149979667956797,-0.4448744545614795,-0.6636198742759654
-0.8149979667956797,-0.4448744545614795,-1.4037717149545508
-0.8149979667956797,-0.4448744545614795,0.38347724101034253
-0.8149979667956797,-0.4448744545614795,1.2089177619042542
-0.8149979667956797,1.501086709634931,0.38347724101034253
-0.8149979667956797,1.501086709634931,1.2089177619042542
-0.8149979667956797,1.501086709634931,-2.446653815980271
-0.8149979667956797,1.501086709634931,-0.6636198742759654
-0.8149979667956797,1.501086709634931,-1.4037717149545508
-0.8149979667956797,-2.446653815980271,0.38347724101034253
-0.8149979667956797,-2.446653815980271,1.2089177619042542
-0.8149979667956797,-2.446653815980271,-0.6636198742759654
-0.8149979667956797,-2.446653815980271,-1.4037717149545508
-0.8149979667956797,-0.6636198742759654,0.38347724101034253
-0.8149979667956797,-0.6636198742759654,1.2089177619042542
-0.8149979667956797,-0.6636198742759654,-1.4037717149545508
-0.8149979667956797,-1.4037717149545508,0.38347724101034253
-0.8149979667956797,-1.4037717149545508,1.2089177619042542
-0.8149979667956797,0.38347724101034253,1.2089177619042542
-1.8945115381265611,1.5559730753146175,-0.4448744545614795
-1.8945115381265611,1.5559730753146175,1.501086709634931
-1.8945115381265611,1.5559730753146175,-2.446653815980271
-1.8945115381265611,1.5559730753146175,-0.6636198742759654
-1.8945115381265611,1.5559730753146175,-1.4037717149545508
-1.8945115381265611,1.5559730753146175,0.38347724101034253
-1.8945115381265611,1.5559730753146175,1.2089177619042542
-1.8945115381265611,-0.4448744545614795,1.501086709634931
-1.8945115381265611,-0.4448744545614795,-2.446653815980271
-1.8945115381265611,-0.4448744545614795,-0.6636198742759654
-1.8945115381265611,-0.4448744545614795,-1.4037717149545508
-1.8945115381265611,-0.4448744545614795,0.38347724101034253
-1.8945115381265611,-0.4448744545614795,1.2089177619042542
-1.8945115381265611,1.501086709634931,0.38347724101034253
-1.8945115381265611,1.501086709634931,1.2089177619042542
-1.8945115381265611,1.501086709634931,-2.446653815980271
-1.8945115381265611,1.501086709634931,-0.6636198742759654
-1.8945115381265611,1.501086709634931,-1.4037717149545508
-1.8945115381265611,-2.446653815980271,0.38347724101034253
-1.8945115381265611,-2.446653815980271,1.2089177619042542
-1.8945115381265611,-2.446653815980271,-0.6636198742759654
-1.8945115381265611,-2.446653815980271,-1.4037717149545508
-1.8945115381265611,-0.6636198742759654,0.38347724101034253
-1.8945115381265611,-0.6636198742759654,1.2089177619042542
-1.8945115381265611,-0.6636198742759654,-1.4037717149545508
-1.8945115381265611,-1.4037717149545508,0.38347724101034253
-1.8945115381265611,-1.4037717149545508,1.2089177619042542
-1.8945115381265611,0.38347724101034253,1.2089177619042542
1.5559730753146175,-0.4448744545614795,1.501086709634931
1.5559730753146175,-0.4448744545614795,-2.446653815980271
1.5559730753146175,-0.4448744545614795,-0.6636198742759654
1.5559730753146175,-0.4448744545614795,-1.4037717149545508
1.5559730753146175,-0.4448744545614795,0.38347724101034253
1.5559730753146175,-0.4448744545614795,1.2089177619042542
1.5559730753146175,1.501086709634931,0.38347724101034253
1.5559730753146175,1.501086709634931,1.2089177619042542
1.5559730753146175,1.501086709634931,-2.446653815980271
1.5559730753146175,1.501086709634931,-0.6636198742759654
1.5559730753146175,1.501086709634931,-1.4037717149545508
1.5559730753146175,-2.446653815980271,0.38347724101034253
1.5559730753146175,-2.446653815980271,1.2089177619042542
1.5559730753146175,-2.446653815980271,-0.6636198742759654
1.5559730753146175,-2.446653815980271,-1.4037717149545508
1.5559730753146175,-0.6636198742759654,0.38347724101034253
1.5559730753146175,-0.6636198742759654,1.2089177619042542
1.5559730753146175,-0.6636198742759654,-1.4037717149545508
1.5559730753146175,-1.4037717149545508,0.38347724101034253
1.5559730753146175,-1.4037717149545508,1.2089177619042542
1.5559730753146175,0.38347724101034253,1.2089177619042542
-0.4448744545614795,1.501086709634931,0.38347724101034253
-0.4448744545614795,1.501086709634931,1.2089177619042542
-0.4448744545614795,1.501086709634931,-2.446653815980271
-0.4448744545614795,1.501086709634931,-0.6636198742759654
-0.4448744545614795,1.501086709634931,-1.4037717149545508
-0.4448744545614795,-2.446653815980271,0.38347724101034253
-0.4448744545614795,-2.446653815980271,1.2089177619042542
-0.4448744545614795,-2.446653815980271,-0.6636198742759654
-0.4448744545614795,-2.446653815980271,-1.4037717149545508
-0.4448744545614795,-0.6636198742759654,0.38347724101034253
-0.4448744545614795,-0.6636198742759654,1.2089177619042542
-0.4448744545614795,-0.6636198742759654,-1.4037717149545508
-0.4448744545614795,-1.4037717149545508,0.38347724101034253
-0.4448744545614795,-1.4037717149545508,1.2089177619042542
-0.4448744545614795,0.38347724101034253,1.2089177619042542
1.501086709634931,0.38347724101034253,1.2089177619042542
1.501086709634931,-2.446653815980271,0.38347724101034253
1.501086709634931,-2.446653815980271,1.2089177619042542
1.501086709634931,-2.446653815980271,-0.6636198742759654
1.501086709634931,-2.446653815980271,-1.4037717149545508
1.501086709634931,-0.6636198742759654,0.38347724101034253
1.501086709634931,-0.6636198742759654,1.2089177619042542
1.501086709634931,-0.6636198742759654,-1.4037717149545508
1.501086709634931,-1.4037717149545508,0.38347724101034253
1.501086709634931,-1.4037717149545508,1.2089177619042542
-2.446653815980271,0.38347724101034253,1.2089177619042542
-2.446653815980271,-0.6636198742759654,0.38347724101034253
-2.446653815980271,-0.6636198742759654,1.2089177619042542
-2.446653815980271,-0.6636198742759654,-1.4037717149545508
-2.446653815980271,-1.4037717149545508,0.38347724101034253
-2.446653815980271,-1.4037717149545508,1.2089177619042542
-0.6636198742759654,0.38347724101034253,1.2089177619042542
-0.6636198742759654,-1.4037717149545508,0.38347724101034253
-0.6636198742759654,-1.4037717149545508,1.2089177619042542
-1.4037717149545508,0.38347724101034253,1.2089177619042542
