0,1,2
-2.514651615174008,-0.2587421210427022,2.190699707008714
-2.514651615174008,-0.2587421210427022,-0.5624977698423482
-2.514651615174008,-0.2587421210427022,-4.138188225009198
-2.514651615174008,-0.2587421210427022,0.47021860313821
-2.514651615174008,-0.2587421210427022,0.33139202899838427
-2.514651615174008,-0.2587421210427022,-0.9460673093548285
-2.514651615174008,-0.2587421210427022,-0.6083900789894847
-2.514651615174008,-0.2587421210427022,-2.2230799954000497
-2.514651615174008,2.190699707008714,-0.5624977698423482
-2.514651615174008,2.190699707008714,-4.138188225009198
-2.514651615174008,2.190699707008714,0.47021860313821
-2.514651615174008,2.190699707008714,0.33139202899838427
-2.514651615174008,2.190699707008714,-0.9460673093548285
-2.514651615174008,2.190699707008714,-0.6083900789894847
-2.514651615174008,2.190699707008714,-2.2230799954000497
-2.514651615174008,-0.5624977698423482,-4.138188225009198
-2.514651615174008,-0.5624977698423482,0.47021860313821
-2.514651615174008,-0.5624977698423482,0.33139202899838427
-2.514651615174008,-0.5624977698423482,-0.9460673093548285
-2.514651615174008,-0.5624977698423482,-0.6083900789894847
-2.514651615174008,-0.5624977698423482,-2.2230799954000497
-2.514651615174008,-4.138188225009198,-0.6083900789894847
-2.514651615174008,-4.138188225009198,-2.2230799954000497
-2.514651615174008,-4.138188225009198,0.47021860313821
-2.514651615174008,-4.138188225009198,0.33139202899838427
-2.514651615174008,-4.138188225009198,-0.9460673093548285
-2.514651615174008,0.47021860313821,-0.6083900789894847
-2.514651615174008,0.47021860313821,-2.2230799954000497
-2.514651615174008,0.47021860313821,0.33139202899838427
-2.514651615174008,0.47021860313821,-0.9460673093548285
-2.514651615174008,0.33139202899838427,-0.6083900789894847
-2.514651615174008,0.33139202899838427,-2.2230799954000497
-2.514651615174008,0.33139202899838427,-0.9460673093548285
-2.514651615174008,-0.9460673093548285,-0.6083900789894847
-2.514651615174008,-0.9460673093548285,-2.2230799954000497
-2.514651615174008,-0.6083900789894847,-2.2230799954000497
-0.2587421210427022,2.190699707008714,-0.5624977698423482
-0.2587421210427022,2.190699707008714,-4.138188225009198
-0.2587421210427022,2.190699707008714,0.47021860313821
-0.2587421210427022,2.190699707008714,0.33139202899838427
-0.2587421210427022,2.190699707008714,-0.9460673093548285
-0.2587421210427022,2.190699707008714,-0.6083900789894847
-0.2587421210427022,2.190699707008714,-2.2230799954000497
-0.2587421210427022,-0.5624977698423482,-4.138188225009198
-0.2587421210427022,-0.5624977698423482,0.47021860313821
-0.2587421210427022,-0.5624977698423482,0.33139202899838427
-0.2587421210427022,-0.5624977698423482,-0.9460673093548285
-0.2587421210427022,-0.5624977698423482,-0.6083900789894847
-0.2587421210427022,-0.5624977698423482,-2.2230799954000497
-0.2587421210427022,-4.138188225009198,-0.6083900789894847
-0.2587421210427022,-4.138188225009198,-2.2230799954000497
-0.2587421210427022,-4.138188225009198,0.47021860313821
-0.2587421210427022,-4.138188225009198,0.33139202899838427
-0.2587421210427022,-4.138188225009198,-0.9460673093548285
-0.2587421210427022,0.47021860313821,-0.6083900789894847
-0.2587421210427022,0.47021860313821,-2.2230799954000497
-0.2587421210427022,0.47021860313821,0.33139202899838427
-0.2587421210427022,0.47021860313821,-0.9460673093548285
-0.2587421210427022,0.33139202899838427,-0.6083900789894847
-0.2587421210427022,0.33139202899838427,-2.2230799954000497
-0.2587421210427022,0.33139202899838427,-0.9460673093548285
-0.2587421210427022,-0.9460673093548285,-0.6083900789894847
-0.2587421210427022,-0.9460673093548285,-2.2230799954000497
-0.2587421210427022,-0.6083900789894847,-2.2230799954000497
2.190699707008714,-0.5624977698423482,-4.138188225009198
2.190699707008714,-0.5624977698423482,0.47021860313821
2.190699707008714,-0.5624977698423482,0.33139202899838427
2.190699707008714,-0.5624977698423482,-0.9460673093548285
2.190699707008714,-0.5624977698423482,-0.6083900789894847
2.190699707008714,-0.5624977698423482,-2.2230799954000497
2.190699707008714,-4.138188225009198,-0.6083900789894847
2.190699707008714,-4.138188225009198,-2.2230799954000497
2.190699707008714,-4.138188225009198,0.47021860313821
2.190699707008714,-4.138188225009198,0.33139202899838427
2.190699707008714,-4.138188225009198,-0.9460673093548285
2.190699707008714,0.47021860313821,-0.6083900789894847
2.190699707008714,0.47021860313821,-2.2230799954000497
2.190699707008714,0.47021860313821,0.33139202899838427
2.190699707008714,0.47021860313821,-0.9460673093548285
2.190699707008714,0.33139202899838427,-0.6083900789894847
2.190699707008714,0.33139202899838427,-2.2230799954000497
2.190699707008714,0.33139202899838427,-0.9460673093548285
2.190699707008714,-0.9460673093548285,-0.6083900789894847
2.190699707008714,-0.9460673093548285,-2.2230799954000497
2.190699707008714,-0.6083900789894847,-2.2230799954000497
-0.5624977698423482,-4.138188225009198,-0.6083900789894847
-0.5624977698423482,-4.138188225009198,-2.2230799954000497
-0.5624977698423482,-4.138188225009198,0.47021860313821
-0.5624977698423482,-4.138188225009198,0.33139202899838427
-0.5624977698423482,-4.138188225009198,-0.9460673093548285
-0.5624977698423482,0.47021860313821,-0.6083900789894847
-0.5624977698423482,0.47021860313821,-2.2230799954000497
-0.5624977698423482,0.47021860313821,0.33139202899838427
-0.5624977698423482,0.47021860313821,-0.9460673093548285
-0.5624977698423482,0.33139202899838427,-0.6083900789894847
-0.5624977698423482,0.33139202899838427,-2.2230799954000497
-0.5624977698423482,0.33139202899838427,-0.9460673093548285
-0.5624977698423482,-0.9460673093548285,-0.6083900789894847
-0.5624977698423482,-0.9460673093548285,-2.2230799954000497
-0.5624977698423482,-0.6083900789894847,-2.2230799954000497
-4.138188225009198,-0.6083900789894847,-2.2230799954000497
-4.138188225009198,0.47021860313821,-0.6083900789894847
-4.138188225009198,0.47021860313821,-2.2230799954000497
-4.138188225009198,0.47021860313821,0.33139202899838427
-4.138188225009198,0.47021860313821,-0.9460673093548285
-4.138188225009198,0.33139202899838427,-0.6083900789894847
-4.138188225009198,0.33139202899838427,-2.2230799954000497
-4.138188225009198,0.33139202899838427,-0.9460673093548285
-4.138188225009198,-0.9460673093548285,-0.6083900789894847
-4.138188225009198,-0.9460673093548285,-2.2230799954000497
0.47021860313821,-0.6083900789894847,-2.2230799954000497
0.47021860313821,0.33139202899838427,-0.6083900789894847
0.47021860313821,0.33139202899838427,-2.2230799954000497
0.47021860313821,0.33139202899838427,-0.9460673093548285
0.47021860313821,-0.9460673093548285,-0.6083900789894847
0.47021860313821,-0.9460673093548285,-2.2230799954000497
0.33139202899838427,-0.6083900789894847,-2.2230799954000497
0.33139202899838427,-0.9460673093548285,-0.6083900789894847
0.33139202899838427,-0.9460673093548285,-2.2230799954000497
-0.9460673093548285,-0.6083900789894847,-2.2230799954000497
