0,1,2
-1.0034029628787169,-0.3157714888937068,-0.9320842518303798
-1.0034029628787169,-0.3157714888937068,0.7124274560349035
-1.0034029628787169,-0.3157714888937068,-0.20177020061329493
-1.0034029628787169,-0.3157714888937068,1.0628914556584492
-1.0034029628787169,-0.3157714888937068,-0.9326180331982583
-1.0034029628787169,-0.3157714888937068,0.41848383351051727
-1.0034029628787169,-0.3157714888937068,-0.7742728633585128
-1.0034029628787169,-0.3157714888937068,-2.001560497609608
-1.0034029628787169,-0.9320842518303798,0.7124274560349035
-1.0034029628787169,-0.9320842518303798,-0.20177020061329493
-1.0034029628787169,-0.9320842518303798,1.0628914556584492
-1.0034029628787169,-0.9320842518303798,-0.9326180331982583
-1.0034029628787169,-0.9320842518303798,0.41848383351051727
-1.0034029628787169,-0.9320842518303798,-0.7742728633585128
-1.0034029628787169,-0.9320842518303798,-2.001560497609608
-1.0034029628787169,0.7124274560349035,-0.20177020061329493
-1.0034029628787169,0.7124274560349035,1.0628914556584492
-1.0034029628787169,0.7124274560349035,-0.9326180331982583
-1.0034029628787169,0.7124274560349035,0.41848383351051727
-1.0034029628787169,0.7124274560349035,-0.7742728633585128
-1.0034029628787169,0.7124274560349035,-2.001560497609608
-1.0034029628787169,-0.20177020061329493,-0.7742728633585128
-1.0034029628787169,-0.20177020061329493,-2.001560497609608
-1.0034029628787169,-0.20177020061329493,1.0628914556584492
-1.0034029628787169,-0.20177020061329493,-0.9326180331982583
-1.0034029628787169,-0.20177020061329493,0.41848383351051727
-1.0034029628787169,1.0628914556584492,-0.7742728633585128
-1.0034029628787169,1.0628914556584492,-2.001560497609608
-1.0034029628787169,1.0628914556584492,-0.9326180331982583
-1.0034029628787169,1.0628914556584492,0.41848383351051727
-1.0034029628787169,-0.9326180331982583,-0.7742728633585128
-1.0034029628787169,-0.9326180331982583,-2.001560497609608
-1.0034029628787169,-0.9326180331982583,0.41848383351051727
-1.0034029628787169,0.41848383351051727,-0.7742728633585128
-1.0034029628787169,0.41848383351051727,-2.001560497609608
-1.0034029628787169,-0.7742728633585128,-2.001560497609608
-0.3157714888937068,-0.9320842518303798,0.7124274560349035
-0.3157714888937068,-0.9320842518303798,-0.20177020061329493
-0.3157714888937068,-0.9320842518303798,1.0628914556584492
-0.3157714888937068,-0.9320842518303798,-0.9326180331982583
-0.3157714888937068,-0.9320842518303798,0.41848383351051727
-0.3157714888937068,-0.9320842518303798,-0.7742728633585128
-0.3157714888937068,-0.9320842518303798,-2.001560497609608
-0.3157714888937068,0.7124274560349035,-0.20177020061329493
-0.3157714888937068,0.7124274560349035,1.0628914556584492
-0.3157714888937068,0.7124274560349035,-0.9326180331982583
-0.3157714888937068,0.7124274560349035,0.41848383351051727
-0.3157714888937068,0.7124274560349035,-0.7742728633585128
-0.3157714888937068,0.7124274560349035,-2.001560497609608
-0.3157714888937068,-0.20177020061329493,-0.7742728633585128
-0.3157714888937068,-0.20177020061329493,-2.001560497609608
-0.3157714888937068,-0.20177020061329493,1.0628914556584492
-0.3157714888937068,-0.20177020061329493,-0.9326180331982583
-0.3157714888937068,-0.20177020061329493,0.41848383351051727
-0.3157714888937068,1.0628914556584492,-0.7742728633585128
-0.3157714888937068,1.0628914556584492,-2.001560497609608
-0.3157714888937068,1.0628914556584492,-0.9326180331982583
-0.3157714888937068,1.0628914556584492,0.41848383351051727
-0.3157714888937068,-0.9326180331982583,-0.7742728633585128
-0.3157714888937068,-0.9326180331982583,-2.001560497609608
-0.3157714888937068,-0.9326180331982583,0.41848383351051727
-0.3157714888937068,0.41848383351051727,-0.7742728633585128
-0.3157714888937068,0.41848383351051727,-2.001560497609608
-0.3157714888937068,-0.7742728633585128,-2.001560497609608
-0.9320842518303798,0.7124274560349035,-0.20177020061329493
-0.9320842518303798,0.7124274560349035,1.0628914556584492
-0.9320842518303798,0.7124274560349035,-0.9326180331982583
-0.9320842518303798,0.7124274560349035,0.41848383351051727
-0.9320842518303798,0.7124274560349035,-0.7742728633585128
-0.9320842518303798,0.7124274560349035,-2.001560497609608
-0.9320842518303798,-0.20177020061329493,-0.7742728633585128
-0.9320842518303798,-0.20177020061329493,-2.001560497609608
-0.9320842518303798,-0.20177020061329493,1.0628914556584492
-0.9320842518303798,-0.20177020061329493,-0.9326180331982583
-0.9320842518303798,-0.20177020061329493,0.41848383351051727
-0.9320842518303798,1.0628914556584492,-0.7742728633585128
-0.9320842518303798,1.0628914556584492,-2.001560497609608
-0.9320842518303798,1.0628914556584492,-0.9326180331982583
-0.9320842518303798,1.0628914556584492,0.41848383351051727
-0.9320842518303798,-0.9326180331982583,-0.7742728633585128
-0.9320842518303798,-0.9326180331982583,-2.001560497609608
-0.9320842518303798,-0.9326180331982583,0.41848383351051727
-0.9320842518303798,0.41848383351051727,-0.7742728633585128
-0.9320842518303798,0.41848383351051727,-2.001560497609608
-0.9320842518303798,-0.7742728633585128,-2.001560497609608
0.7124274560349035,-0.20177020061329493,-0.7742728633585128
0.7124274560349035,-0.20177020061329493,-2.001560497609608
0.7124274560349035,-0.20177020061329493,1.0628914556584492
0.7124274560349035,-0.20177020061329493,-0.9326180331982583
0.7124274560349035,-0.20177020061329493,0.41848383351051727
0.7124274560349035,1.0628914556584492,-0.7742728633585128
0.7124274560349035,1.0628914556584492,-2.001560497609608
0.7124274560349035,1.0628914556584492,-0.9326180331982583
0.7124274560349035,1.0628914556584492,0.41848383351051727
0.7124274560349035,-0.9326180331982583,-0.7742728633585128
0.7124274560349035,-0.9326180331982583,-2.001560497609608
0.7124274560349035,-0.9326180331982583,0.41848383351051727
0.7124274560349035,0.41848383351051727,-0.7742728633585128
0.7124274560349035,0.41848383351051727,-2.001560497609608
0.7124274560349035,-0.7742728633585128,-2.001560497609608
-0.20177020061329493,-0.7742728633585128,-2.001560497609608
-0.20177020061329493,1.0628914556584492,-0.7742728633585128
-0.20177020061329493,1.0628914556584492,-2.001560497609608
-0.20177020061329493,1.0628914556584492,-0.9326180331982583
-0.20177020061329493,1.0628914556584492,0.41848383351051727
-0.20177020061329493,-0.9326180331982583,-0.7742728633585128
-0.20177020061329493,-0.9326180331982583,-2.001560497609608
-0.20177020061329493,-0.9326180331982583,0.41848383351051727
-0.20177020061329493,0.41848383351051727,-0.7742728633585128
-0.20177020061329493,0.41848383351051727,-2.001560497609608
1.0628914556584492,-0.7742728633585128,-2.001560497609608
1.0628914556584492,-0.9326180331982583,-0.7742728633585128
1.0628914556584492,-0.9326180331982583,-2.001560497609608
1.0628914556584492,-0.9326180331982583,0.41848383351051727
1.0628914556584492,0.41848383351051727,-0.7742728633585128
1.0628914556584492,0.41848383351051727,-2.001560497609608
-0.9326180331982583,-0.7742728633585128,-2.001560497609608
-0.9326180331982583,0.41848383351051727,-0.7742728633585128
-0.9326180331982583,0.41848383351051727,-2.001560497609608
0.41848383351051727,-0.7742728633585128,-2.001560497609608
