0,1,2
-2.8213839661784745,-3.6556613303666725,-0.38501691716376085
-2.8213839661784745,-3.6556613303666725,2.689489011923049
-2.8213839661784745,-3.6556613303666725,-3.5735523818785957
-2.8213839661784745,-3.6556613303666725,4.58617393260302
-2.8213839661784745,-3.6556613303666725,-1.8279885170956722
-2.8213839661784745,-3.6556613303666725,0.876124161392287
-2.8213839661784745,-3.6556613303666725,1.923871156593668
-2.8213839661784745,-3.6556613303666725,1.176304349295617
-2.8213839661784745,-0.38501691716376085,2.689489011923049
-2.8213839661784745,-0.38501691716376085,-3.5735523818785957
-2.8213839661784745,-0.38501691716376085,4.58617393260302
-2.8213839661784745,-0.38501691716376085,-1.8279885170956722
-2.8213839661784745,-0.38501691716376085,0.876124161392287
-2.8213839661784745,-0.38501691716376085,1.923871156593668
-2.8213839661784745,-0.38501691716376085,1.176304349295617
-2.8213839661784745,2.689489011923049,-3.5735523818785957
-2.8213839661784745,2.689489011923049,4.58617393260302
-2.8213839661784745,2.689489011923049,-1.8279885170956722
-2.8213839661784745,2.689489011923049,0.876124161392287
-2.8213839661784745,2.689489011923049,1.923871156593668
-2.8213839661784745,2.689489011923049,1.176304349295617
-2.8213839661784745,-3.5735523818785957,1.923871156593668
-2.8213839661784745,-3.5735523818785957,1.176304349295617
-2.8213839661784745,-3.5735523818785957,4.58617393260302
-2.8213839661784745,-3.5735523818785957,-1.8279885170956722
-2.8213839661784745,-3.5735523818785957,0.876124161392287
-2.8213839661784745,4.58617393260302,1.923871156593668
-2.8213839661784745,4.58617393260302,1.176304349295617
-2.8213839661784745,4.58617393260302,-1.8279885170956722
-2.8213839661784745,4.58617393260302,0.876124161392287
-2.8213839661784745,-1.8279885170956722,1.923871156593668
-2.8213839661784745,-1.8279885170956722,1.176304349295617
-2.8213839661784745,-1.8279885170956722,0.876124161392287
-2.8213839661784745,0.876124161392287,1.923871156593668
-2.8213839661784745,0.876124161392287,1.176304349295617
-2.8213839661784745,1.923871156593668,1.176304349295617
-3.6556613303666725,-0.38501691716376085,2.689489011923049
-3.6556613303666725,-0.38501691716376085,-3.5735523818785957
-3.6556613303666725,-0.38501691716376085,4.58617393260302
-3.6556613303666725,-0.38501691716376085,-1.8279885170956722
-3.6556613303666725,-0.38501691716376085,0.876124161392287
-3.6556613303666725,-0.38501691716376085,1.923871156593668
-3.6556613303666725,-0.38501691716376085,1.176304349295617
-3.6556613303666725,2.689489011923049,-3.5735523818785957
-3.6556613303666725,2.689489011923049,4.58617393260302
-3.6556613303666725,2.689489011923049,-1.8279885170956722
-3.6556613303666725,2.689489011923049,0.876124161392287
-3.6556613303666725,2.689489011923049,1.923871156593668
-3.6556613303666725,2.689489011923049,1.176304349295617
-3.6556613303666725,-3.5735523818785957,1.923871156593668
-3.6556613303666725,-3.5735523818785957,1.176304349295617
-3.6556613303666725,-3.5735523818785957,4.58617393260302
-3.6556613303666725,-3.5735523818785957,-1.8279885170956722
-3.6556613303666725,-3.5735523818785957,0.876124161392287
-3.6556613303666725,4.58617393260302,1.923871156593668
-3.6556613303666725,4.58617393260302,1.176304349295617
-3.6556613303666725,4.58617393260302,-1.8279885170956722
-3.6556613303666725,4.58617393260302,0.876124161392287
-3.6556613303666725,-1.8279885170956722,1.923871156593668
-3.6556613303666725,-1.8279885170956722,1.176304349295617
-3.6556613303666725,-1.8279885170956722,0.876124161392287
-3.6556613303666725,0.876124161392287,1.923871156593668
-3.6556613303666725,0.876124161392287,1.176304349295617
-3.6556613303666725,1.923871156593668,1.176304349295617
-0.38501691716376085,2.689489011923049,-3.5735523818785957
-0.38501691716376085,2.689489011923049,4.58617393260302
-0.38501691716376085,2.689489011923049,-1.8279885170956722
-0.38501691716376085,2.689489011923049,0.876124161392287
-0.38501691716376085,2.689489011923049,1.923871156593668
-0.38501691716376085,2.689489011923049,1.176304349295617
-0.38501691716376085,-3.5735523818785957,1.923871156593668
-0.38501691716376085,-3.5735523818785957,1.176304349295617
-0.38501691716376085,-3.5735523818785957,4.58617393260302
-0.38501691716376085,-3.5735523818785957,-1.8279885170956722
-0.38501691716376085,-3.5735523818785957,0.876124161392287
-0.38501691716376085,4.58617393260302,1.923871156593668
-0.38501691716376085,4.58617393260302,1.176304349295617
-0.38501691716376085,4.58617393260302,-1.8279885170956722
-0.38501691716376085,4.58617393260302,0.876124161392287
-0.38501691716376085,-1.8279885170956722,1.923871156593668
-0.38501691716376085,-1.8279885170956722,1.176304349295617
-0.38501691716376085,-1.8279885170956722,0.876124161392287
-0.38501691716376085,0.876124161392287,1.923871156593668
-0.38501691716376085,0.876124161392287,1.176304349295617
-0.38501691716376085,1.923871156593668,1.176304349295617
2.689489011923049,-3.5735523818785957,1.923871156593668
2.689489011923049,-3.5735523818785957,1.176304349295617
2.689489011923049,-3.5735523818785957,4.58617393260302
2.689489011923049,-3.5735523818785957,-1.8279885170956722
2.689489011923049,-3.5735523818785957,0.876124161392287
2.689489011923049,4.58617393260302,1.923871156593668
2.689489011923049,4.58617393260302,1.176304349295617
2.689489011923049,4.58617393260302,-1.8279885170956722
2.689489011923049,4.58617393260302,0.876124161392287
2.689489011923049,-1.8279885170956722,1.923871156593668
2.689489011923049,-1.8279885170956722,1.176304349295617
2.689489011923049,-1.8279885170956722,0.876124161392287
2.689489011923049,0.876124161392287,1.923871156593668
2.689489011923049,0.876124161392287,1.176304349295617
2.689489011923049,1.923871156593668,1.176304349295617
-3.5735523818785957,1.923871156593668,1.176304349295617
-3.5735523818785957,4.58617393260302,1.923871156593668
-3.5735523818785957,4.58617393260302,1.176304349295617
-3.5735523818785957,4.58617393260302,-1.8279885170956722
-3.5735523818785957,4.58617393260302,0.876124161392287
-3.5735523818785957,-1.8279885170956722,1.923871156593668
-3.5735523818785957,-1.8279885170956722,1.176304349295617
-3.5735523818785957,-1.8279885170956722,0.876124161392287
-3.5735523818785957,0.876124161392287,1.923871156593668
-3.5735523818785957,0.876124161392287,1.176304349295617
4.58617393260302,1.923871156593668,1.176304349295617
4.58617393260302,-1.8279885170956722,1.923871156593668
4.58617393260302,-1.8279885170956722,1.176304349295617
4.58617393260302,-1.8279885170956722,0.876124161392287
4.58617393260302,0.876124161392287,1.923871156593668
4.58617393260302,0.876124161392287,1.176304349295617
-1.8279885170956722,1.923871156593668,1.176304349295617
-1.8279885170956722,0.876124161392287,1.923871156593668
-1.8279885170956722,0.876124161392287,1.176304349295617
0.876124161392287,1.923871156593668,1.176304349295617
