0,1,2
-1.5740606552557355,2.643491270352444,2.2874410756487835
-1.5740606552557355,2.643491270352444,-0.6261624738082944
-1.5740606552557355,2.643491270352444,0.49361414193069714
-1.5740606552557355,2.643491270352444,-1.3709173984873448
-1.5740606552557355,2.643491270352444,-1.999355963258484
-1.5740606552557355,2.643491270352444,-1.9625326704797934
-1.5740606552557355,2.643491270352444,2.713445804076823
-1.5740606552557355,2.643491270352444,-2.053229154913545
-1.5740606552557355,2.2874410756487835,-0.6261624738082944
-1.5740606552557355,2.2874410756487835,0.49361414193069714
-1.5740606552557355,2.2874410756487835,-1.3709173984873448
-1.5740606552557355,2.2874410756487835,-1.999355963258484
-1.5740606552557355,2.2874410756487835,-1.9625326704797934
-1.5740606552557355,2.2874410756487835,2.713445804076823
-1.5740606552557355,2.2874410756487835,-2.053229154913545
-1.5740606552557355,-0.6261624738082944,0.49361414193069714
-1.5740606552557355,-0.6261624738082944,-1.3709173984873448
-1.5740606552557355,-0.6261624738082944,-1.999355963258484
-1.5740606552557355,-0.6261624738082944,-1.9625326704797934
-1.5740606552557355,-0.6261624738082944,2.713445804076823
-1.5740606552557355,-0.6261624738082944,-2.053229154913545
-1.5740606552557355,0.49361414193069714,2.713445804076823
-1.5740606552557355,0.49361414193069714,-2.053229154913545
-1.5740606552557355,0.49361414193069714,-1.3709173984873448
-1.5740606552557355,0.49361414193069714,-1.999355963258484
-1.5740606552557355,0.49361414193069714,-1.9625326704797934
-1.5740606552557355,-1.3709173984873448,2.713445804076823
-1.5740606552557355,-1.3709173984873448,-2.053229154913545
-1.5740606552557355,-1.3709173984873448,-1.999355963258484
-1.5740606552557355,-1.3709173984873448,-1.9625326704797934
-1.5740606552557355,-1.999355963258484,2.713445804076823
-1.5740606552557355,-1.999355963258484,-2.053229154913545
-1.5740606552557355,-1.999355963258484,-1.9625326704797934
-1.5740606552557355,-1.9625326704797934,2.713445804076823
-1.5740606552557355,-1.9625326704797934,-2.053229154913545
-1.5740606552557355,2.713445804076823,-2.053229154913545
2.643491270352444,2.2874410756487835,-0.6261624738082944
2.643491270352444,2.2874410756487835,0.49361414193069714
2.643491270352444,2.2874410756487835,-1.3709173984873448
2.643491270352444,2.2874410756487835,-1.999355963258484
2.643491270352444,2.2874410756487835,-1.9625326704797934
2.643491270352444,2.2874410756487835,2.713445804076823
2.643491270352444,2.2874410756487835,-2.053229154913545
2.643491270352444,-0.6261624738082944,0.49361414193069714
2.643491270352444,-0.6261624738082944,-1.3709173984873448
2.643491270352444,-0.6261624738082944,-1.999355963258484
2.643491270352444,-0.6261624738082944,-1.9625326704797934
2.643491270352444,-0.6261624738082944,2.713445804076823
2.643491270352444,-0.6261624738082944,-2.053229154913545
2.643491270352444,0.49361414193069714,2.713445804076823
2.643491270352444,0.49361414193069714,-2.053229154913545
2.643491270352444,0.49361414193069714,-1.3709173984873448
2.643491270352444,0.49361414193069714,-1.999355963258484
2.643491270352444,0.49361414193069714,-1.9625326704797934
2.643491270352444,-1.3709173984873448,2.713445804076823
2.643491270352444,-1.3709173984873448,-2.053229154913545
2.643491270352444,-1.3709173984873448,-1.999355963258484
2.643491270352444,-1.3709173984873448,-1.9625326704797934
2.643491270352444,-1.999355963258484,2.713445804076823
2.643491270352444,-1.999355963258484,-2.053229154913545
2.643491270352444,-1.999355963258484,-1.9625326704797934
2.643491270352444,-1.9625326704797934,2.713445804076823
2.643491270352444,-1.9625326704797934,-2.053229154913545
2.643491270352444,2.713445804076823,-2.053229154913545
2.2874410756487835,-0.6261624738082944,0.49361414193069714
2.2874410756487835,-0.6261624738082944,-1.3709173984873448
2.2874410756487835,-0.6261624738082944,-1.999355963258484
2.2874410756487835,-0.6261624738082944,-1.9625326704797934
2.2874410756487835,-0.6261624738082944,2.713445804076823
2.2874410756487835,-0.6261624738082944,-2.053229154913545
2.2874410756487835,0.49361414193069714,2.713445804076823
2.2874410756487835,0.49361414193069714,-2.053229154913545
2.2874410756487835,0.49361414193069714,-1.3709173984873448
2.2874410756487835,0.49361414193069714,-1.999355963258484
2.2874410756487835,0.49361414193069714,-1.9625326704797934
2.2874410756487835,-1.3709173984873448,2.713445804076823
2.2874410756487835,-1.3709173984873448,-2.053229154913545
2.2874410756487835,-1.3709173984873448,-1.999355963258484
2.2874410756487835,-1.3709173984873448,-1.9625326704797934
2.2874410756487835,-1.999355963258484,2.713445804076823
2.2874410756487835,-1.999355963258484,-2.053229154913545
2.2874410756487835,-1.999355963258484,-1.9625326704797934
2.2874410756487835,-1.9625326704797934,2.713445804076823
2.2874410756487835,-1.9625326704797934,-2.053229154913545
2.2874410756487835,2.713445804076823,-2.053229154913545
-0.6261624738082944,0.49361414193069714,2.713445804076823
-0.6261624738082944,0.49361414193069714,-2.053229154913545
-0.6261624738082944,0.49361414193069714,-1.3709173984873448
-0.6261624738082944,0.49361414193069714,-1.999355963258484
-0.6261624738082944,0.49361414193069714,-1.9625326704797934
-0.6261624738082944,-1.3709173984873448,2.713445804076823
-0.6261624738082944,-1.3709173984873448,-2.053229154913545
-0.6261624738082944,-1.3709173984873448,-1.999355963258484
-0.6261624738082944,-1.3709173984873448,-1.9625326704797934
-0.6261624738082944,-1.999355963258484,2.713445804076823
-0.6261624738082944,-1.999355963258484,-2.053229154913545
-0.6261624738082944,-1.999355963258484,-1.9625326704797934
-0.6261624738082944,-1.9625326704797934,2.713445804076823
-0.6261624738082944,-1.9625326704797934,-2.053229154913545
-0.6261624738082944,2.713445804076823,-2.053229154913545
0.49361414193069714,2.713445804076823,-2.053229154913545
0.49361414193069714,-1.3709173984873448,2.713445804076823
0.49361414193069714,-1.3709173984873448,-2.053229154913545
0.49361414193069714,-1.3709173984873448,-1.999355963258484
0.49361414193069714,-1.3709173984873448,-1.9625326704797934
0.49361414193069714,-1.999355963258484,2.713445804076823
0.49361414193069714,-1.999355963258484,-2.053229154913545
0.49361414193069714,-1.999355963258484,-1.9625326704797934
0.49361414193069714,-1.9625326704797934,2.713445804076823
0.49361414193069714,-1.9625326704797934,-2.053229154913545
-1.3709173984873448,2.713445804076823,-2.053229154913545
-1.3709173984873448,-1.999355963258484,2.713445804076823
-1.3709173984873448,-1.999355963258484,-2.053229154913545
-1.3709173984873448,-1.999355963258484,-1.9625326704797934
-1.3709173984873448,-1.9625326704797934,2.713445804076823
-1.3709173984873448,-1.9625326704797934,-2.053229154913545
-1.999355963258484,2.713445804076823,-2.053229154913545
-1.999355963258484,-1.9625326704797934,2.713445804076823
-1.999355963258484,-1.9625326704797934,-2.053229154913545
-1.9625326704797934,2.713445804076823,-2.053229154913545
