0,1,2
0.9263012447677998,-1.0775812930249802,0.6815280612751072
0.9263012447677998,-1.0775812930249802,1.631475875742492
0.9263012447677998,-1.0775812930249802,-1.9545260483080014
0.9263012447677998,-1.0775812930249802,-1.356017013856314
0.9263012447677998,-1.0775812930249802,-2.7803287280378712
0.9263012447677998,-1.0775812930249802,-0.5010157184676888
0.9263012447677998,-1.0775812930249802,1.6898863631238037
0.9263012447677998,-1.0775812930249802,-1.0483058852018363
0.9263012447677998,0.6815280612751072,1.631475875742492
0.9263012447677998,0.6815280612751072,-1.9545260483080014
0.9263012447677998,0.6815280612751072,-1.356017013856314
0.9263012447677998,0.6815280612751072,-2.7803287280378712
0.9263012447677998,0.6815280612751072,-0.5010157184676888
0.9263012447677998,0.6815280612751072,1.6898863631238037
0.9263012447677998,0.6815280612751072,-1.0483058852018363
0.9263012447677998,1.631475875742492,-1.9545260483080014
0.9263012447677998,1.631475875742492,-1.356017013856314
0.9263012447677998,1.631475875742492,-2.7803287280378712
0.9263012447677998,1.631475875742492,-0.5010157184676888
0.9263012447677998,1.631475875742492,1.6898863631238037
0.9263012447677998,1.631475875742492,-1.0483058852018363
0.9263012447677998,-1.9545260483080014,1.6898863631238037
0.9263012447677998,-1.9545260483080014,-1.0483058852018363
0.9263012447677998,-1.9545260483080014,-1.356017013856314
0.9263012447677998,-1.9545260483080014,-2.7803287280378712
0.9263012447677998,-1.9545260483080014,-0.5010157184676888
0.9263012447677998,-1.356017013856314,1.6898863631238037
0.9263012447677998,-1.356017013856314,-1.0483058852018363
0.9263012447677998,-1.356017013856314,-2.7803287280378712
0.9263012447677998,-1.356017013856314,-0.5010157184676888
0.9263012447677998,-2.7803287280378712,1.6898863631238037
0.9263012447677998,-2.7803287280378712,-1.0483058852018363
0.9263012447677998,-2.7803287280378712,-0.5010157184676888
0.9263012447677998,-0.5010157184676888,1.6898863631238037
0.9263012447677998,-0.5010157184676888,-1.0483058852018363
0.9263012447677998,1.6898863631238037,-1.0483058852018363
-1.0775812930249802,0.6815280612751072,1.631475875742492
-1.0775812930249802,0.6815280612751072,-1.9545260483080014
-1.0775812930249802,0.6815280612751072,-1.356017013856314
-1.0775812930249802,0.6815280612751072,-2.7803287280378712
-1.0775812930249802,0.6815280612751072,-0.5010157184676888
-1.0775812930249802,0.6815280612751072,1.6898863631238037
-1.0775812930249802,0.6815280612751072,-1.0483058852018363
-1.0775812930249802,1.631475875742492,-1.9545260483080014
-1.0775812930249802,1.631475875742492,-1.356017013856314
-1.0775812930249802,1.631475875742492,-2.7803287280378712
-1.0775812930249802,1.631475875742492,-0.5010157184676888
-1.0775812930249802,1.631475875742492,1.6898863631238037
-1.0775812930249802,1.631475875742492,-1.0483058852018363
-1.0775812930249802,-1.9545260483080014,1.6898863631238037
-1.0775812930249802,-1.9545260483080014,-1.0483058852018363
-1.0775812930249802,-1.9545260483080014,-1.356017013856314
-1.0775812930249802,-1.9545260483080014,-2.7803287280378712
-1.0775812930249802,-1.9545260483080014,-0.5010157184676888
-1.0775812930249802,-1.356017013856314,1.6898863631238037
-1.0775812930249802,-1.356017013856314,-1.0483058852018363
-1.0775812930249802,-1.356017013856314,-2.7803287280378712
-1.0775812930249802,-1.356017013856314,-0.5010157184676888
-1.0775812930249802,-2.7803287280378712,1.6898863631238037
-1.0775812930249802,-2.7803287280378712,-1.0483058852018363
-1.0775812930249802,-2.7803287280378712,-0.5010157184676888
-1.0775812930249802,-0.5010157184676888,1.6898863631238037
-1.0775812930249802,-0.5010157184676888,-1.0483058852018363
-1.0775812930249802,1.6898863631238037,-1.0483058852018363
0.6815280612751072,1.631475875742492,-1.9545260483080014
0.6815280612751072,1.631475875742492,-1.356017013856314
0.6815280612751072,1.631475875742492,-2.7803287280378712
0.6815280612751072,1.631475875742492,-0.5010157184676888
0.6815280612751072,1.631475875742492,1.6898863631238037
0.6815280612751072,1.631475875742492,-1.0483058852018363
0.6815280612751072,-1.9545260483080014,1.6898863631238037
0.6815280612751072,-1.9545260483080014,-1.0483058852018363
0.6815280612751072,-1.9545260483080014,-1.356017013856314
0.6815280612751072,-1.9545260483080014,-2.7803287280378712
0.6815280612751072,-1.9545260483080014,-0.5010157184676888
0.6815280612751072,-1.356017013856314,1.6898863631238037
0.6815280612751072,-1.356017013856314,-1.0483058852018363
0.6815280612751072,-1.356017013856314,-2.7803287280378712
0.6815280612751072,-1.356017013856314,-0.5010157184676888
0.6815280612751072,-2.7803287280378712,1.6898863631238037
0.6815280612751072,-2.7803287280378712,-1.0483058852018363
0.6815280612751072,-2.7803287280378712,-0.5010157184676888
0.6815280612751072,-0.5010157184676888,1.6898863631238037
0.6815280612751072,-0.5010157184676888,-1.0483058852018363
0.6815280612751072,1.6898863631238037,-1.0483058852018363
1.631475875742492,-1.9545260483080014,1.6898863631238037
1.631475875742492,-1.9545260483080014,-1.0483058852018363
1.631475875742492,-1.9545260483080014,-1.356017013856314
1.631475875742492,-1.9545260483080014,-2.7803287280378712
1.631475875742492,-1.9545260483080014,-0.5010157184676888
1.631475875742492,-1.356017013856314,1.6898863631238037
1.631475875742492,-1.356017013856314,-1.0483058852018363
1.631475875742492,-1.356017013856314,-2.7803287280378712
1.631475875742492,-1.356017013856314,-0.5010157184676888
1.631475875742492,-2.7803287280378712,1.6898863631238037
1.631475875742492,-2.7803287280378712,-1.0483058852018363
1.631475875742492,-2.7803287280378712,-0.5010157184676888
1.631475875742492,-0.5010157184676888,1.6898863631238037
1.631475875742492,-0.5010157184676888,-1.0483058852018363
1.631475875742492,1.6898863631238037,-1.0483058852018363
-1.9545260483080014,1.6898863631238037,-1.0483058852018363
-1.9545260483080014,-1.356017013856314,1.6898863631238037
-1.9545260483080014,-1.356017013856314,-1.0483058852018363
-1.9545260483080014,-1.356017013856314,-2.7803287280378712
-1.9545260483080014,-1.356017013856314,-0.5010157184676888
-1.9545260483080014,-2.7803287280378712,1.6898863631238037
-1.9545260483080014,-2.7803287280378712,-1.0483058852018363
-1.9545260483080014,-2.7803287280378712,-0.5010157184676888
-1.9545260483080014,-0.5010157184676888,1.6898863631238037
-1.9545260483080014,-0.5010157184676888,-1.0483058852018363
-1.356017013856314,1.6898863631238037,-1.0483058852018363
-1.356017013856314,-2.7803287280378712,1.6898863631238037
-1.356017013856314,-2.7803287280378712,-1.0483058852018363
-1.356017013856314,-2.7803287280378712,-0.5010157184676888
-1.356017013856314,-0.5010157184676888,1.6898863631238037
-1.356017013856314,-0.5010157184676888,-1.0483058852018363
-2.7803287280378712,1.6898863631238037,-1.0483058852018363
-2.7803287280378712,-0.5010157184676888,1.6898863631238037
-2.7803287280378712,-0.5010157184676888,-1.0483058852018363
-0.5010157184676888,1.6898863631238037,-1.0483058852018363
