0,1,2
2.019285888279138,-3.4091320462437293,-1.5843995589742295
2.019285888279138,-3.4091320462437293,-0.9246308593119931
2.019285888279138,-3.4091320462437293,0.9041149220637698
2.019285888279138,-3.4091320462437293,-1.8730258860991509
2.019285888279138,-3.4091320462437293,-0.9586120801704013
2.019285888279138,-3.4091320462437293,3.029380100978618
2.019285888279138,-3.4091320462437293,2.054671145742066
2.019285888279138,-3.4091320462437293,-1.9844373446713552
2.019285888279138,-1.5843995589742295,-0.9246308593119931
2.019285888279138,-1.5843995589742295,0.9041149220637698
2.019285888279138,-1.5843995589742295,-1.8730258860991509
2.019285888279138,-1.5843995589742295,-0.9586120801704013
2.019285888279138,-1.5843995589742295,3.029380100978618
2.019285888279138,-1.5843995589742295,2.054671145742066
2.019285888279138,-1.5843995589742295,-1.9844373446713552
2.019285888279138,-0.9246308593119931,0.9041149220637698
2.019285888279138,-0.9246308593119931,-1.8730258860991509
2.019285888279138,-0.9246308593119931,-0.9586120801704013
2.019285888279138,-0.9246308593119931,3.029380100978618
2.019285888279138,-0.9246308593119931,2.054671145742066
2.019285888279138,-0.9246308593119931,-1.9844373446713552
2.019285888279138,0.9041149220637698,2.054671145742066
2.019285888279138,0.9041149220637698,-1.9844373446713552
2.019285888279138,0.9041149220637698,-1.8730258860991509
2.019285888279138,0.9041149220637698,-0.9586120801704013
2.019285888279138,0.9041149220637698,3.029380100978618
2.019285888279138,-1.8730258860991509,2.054671145742066
2.019285888279138,-1.8730258860991509,-1.9844373446713552
2.019285888279138,-1.8730258860991509,-0.9586120801704013
2.019285888279138,-1.8730258860991509,3.029380100978618
2.019285888279138,-0.9586120801704013,2.054671145742066
2.019285888279138,-0.9586120801704013,-1.9844373446713552
2.019285888279138,-0.9586120801704013,3.029380100978618
2.019285888279138,3.029380100978618,2.054671145742066
2.019285888279138,3.029380100978618,-1.9844373446713552
2.019285888279138,2.054671145742066,-1.9844373446713552
-3.4091320462437293,-1.5843995589742295,-0.9246308593119931
-3.4091320462437293,-1.5843995589742295,0.9041149220637698
-3.4091320462437293,-1.5843995589742295,-1.8730258860991509
-3.4091320462437293,-1.5843995589742295,-0.9586120801704013
-3.4091320462437293,-1.5843995589742295,3.029380100978618
-3.4091320462437293,-1.5843995589742295,2.054671145742066
-3.4091320462437293,-1.5843995589742295,-1.9844373446713552
-3.4091320462437293,-0.9246308593119931,0.9041149220637698
-3.4091320462437293,-0.9246308593119931,-1.8730258860991509
-3.4091320462437293,-0.9246308593119931,-0.9586120801704013
-3.4091320462437293,-0.9246308593119931,3.029380100978618
-3.4091320462437293,-0.9246308593119931,2.054671145742066
-3.4091320462437293,-0.9246308593119931,-1.9844373446713552
-3.4091320462437293,0.9041149220637698,2.054671145742066
-3.4091320462437293,0.9041149220637698,-1.9844373446713552
-3.4091320462437293,0.9041149220637698,-1.8730258860991509
-3.4091320462437293,0.9041149220637698,-0.9586120801704013
-3.4091320462437293,0.9041149220637698,3.029380100978618
-3.4091320462437293,-1.8730258860991509,2.054671145742066
-3.4091320462437293,-1.8730258860991509,-1.9844373446713552
-3.4091320462437293,-1.8730258860991509,-0.9586120801704013
-3.4091320462437293,-1.8730258860991509,3.029380100978618
-3.4091320462437293,-0.9586120801704013,2.054671145742066
-3.4091320462437293,-0.9586120801704013,-1.9844373446713552
-3.4091320462437293,-0.9586120801704013,3.029380100978618
-3.4091320462437293,3.029380100978618,2.054671145742066
-3.4091320462437293,3.029380100978618,-1.9844373446713552
-3.4091320462437293,2.054671145742066,-1.9844373446713552
-1.5843995589742295,-0.9246308593119931,0.9041149220637698
-1.5843995589742295,-0.9246308593119931,-1.8730258860991509
-1.5843995589742295,-0.9246308593119931,-0.9586120801704013
-1.5843995589742295,-0.9246308593119931,3.029380100978618
-1.5843995589742295,-0.9246308593119931,2.054671145742066
-1.5843995589742295,-0.9246308593119931,-1.9844373446713552
-1.5843995589742295,0.9041149220637698,2.054671145742066
-1.5843995589742295,0.9041149220637698,-1.9844373446713552
-1.5843995589742295,0.9041149220637698,-1.8730258860991509
-1.5843995589742295,0.9041149220637698,-0.9586120801704013
-1.5843995589742295,0.9041149220637698,3.029380100978618
-1.5843995589742295,-1.8730258860991509,2.054671145742066
-1.5843995589742295,-1.8730258860991509,-1.9844373446713552
-1.5843995589742295,-1.8730258860991509,-0.9586120801704013
-1.5843995589742295,-1.8730258860991509,3.029380100978618
-1.5843995589742295,-0.9586120801704013,2.054671145742066
-1.5843995589742295,-0.9586120801704013,-1.9844373446713552
-1.5843995589742295,-0.9586120801704013,3.029380100978618
-1.5843995589742295,3.029380100978618,2.054671145742066
-1.5843995589742295,3.029380100978618,-1.9844373446713552
-1.5843995589742295,2.054671145742066,-1.9844373446713552
-0.9246308593119931,0.9041149220637698,2.054671145742066
-0.9246308593119931,0.9041149220637698,-1.9844373446713552
-0.9246308593119931,0.9041149220637698,-1.8730258860991509
-0.9246308593119931,0.9041149220637698,-0.9586120801704013
-0.9246308593119931,0.9041149220637698,3.029380100978618
-0.9246308593119931,-1.8730258860991509,2.054671145742066
-0.9246308593119931,-1.8730258860991509,-1.9844373446713552
-0.9246308593119931,-1.8730258860991509,-0.9586120801704013
-0.9246308593119931,-1.8730258860991509,3.029380100978618
-0.9246308593119931,-0.9586120801704013,2.054671145742066
-0.9246308593119931,-0.9586120801704013,-1.9844373446713552
-0.9246308593119931,-0.9586120801704013,3.029380100978618
-0.9246308593119931,3.029380100978618,2.054671145742066
-0.9246308593119931,3.029380100978618,-1.9844373446713552
-0.9246308593119931,2.054671145742066,-1.9844373446713552
0.9041149220637698,2.054671145742066,-1.9844373446713552
0.9041149220637698,-1.8730258860991509,2.054671145742066
0.9041149220637698,-1.8730258860991509,-1.9844373446713552
0.9041149220637698,-1.8730258860991509,-0.9586120801704013
0.9041149220637698,-1.8730258860991509,3.029380100978618
0.9041149220637698,-0.9586120801704013,2.054671145742066
0.9041149220637698,-0.9586120801704013,-1.9844373446713552
0.9041149220637698,-0.9586120801704013,3.029380100978618
0.9041149220637698,3.029380100978618,2.054671145742066
0.9041149220637698,3.029380100978618,-1.9844373446713552
-1.8730258860991509,2.054671145742066,-1.9844373446713552
-1.8730258860991509,-0.9586120801704013,2.054671145742066
-1.8730258860991509,-0.9586120801704013,-1.9844373446713552
-1.8730258860991509,-0.9586120801704013,3.029380100978618
-1.8730258860991509,3.029380100978618,2.054671145742066
-1.8730258860991509,3.029380100978618,-1.9844373446713552
-0.9586120801704013,2.054671145742066,-1.9844373446713552
-0.9586120801704013,3.029380100978618,2.054671145742066
-0.9586120801704013,3.029380100978618,-1.9844373446713552
3.029380100978618,2.054671145742066,-1.9844373446713552
