0,1,2
1.3599427209856438,0.1154245360748146,2.469626731867948
1.3599427209856438,0.1154245360748146,-0.11310590336986634
1.3599427209856438,0.1154245360748146,-1.2555810239963536
1.3599427209856438,0.1154245360748146,0.607939388219346
1.3599427209856438,0.1154245360748146,1.0207518041044026
1.3599427209856438,0.1154245360748146,-0.1812321539894198
1.3599427209856438,0.1154245360748146,2.407929729939063
1.3599427209856438,0.1154245360748146,1.9846776920238938
1.3599427209856438,2.469626731867948,-0.11310590336986634
1.3599427209856438,2.469626731867948,-1.2555810239963536
1.3599427209856438,2.469626731867948,0.607939388219346
1.3599427209856438,2.469626731867948,1.0207518041044026
1.3599427209856438,2.469626731867948,-0.1812321539894198
1.3599427209856438,2.469626731867948,2.407929729939063
1.3599427209856438,2.469626731867948,1.9846776920238938
1.3599427209856438,-0.11310590336986634,-1.2555810239963536
1.3599427209856438,-0.11310590336986634,0.607939388219346
1.3599427209856438,-0.11310590336986634,1.0207518041044026
1.3599427209856438,-0.11310590336986634,-0.1812321539894198
1.3599427209856438,-0.11310590336986634,2.407929729939063
1.3599427209856438,-0.11310590336986634,1.9846776920238938
1.3599427209856438,-1.2555810239963536,2.407929729939063
1.3599427209856438,-1.2555810239963536,1.9846776920238938
1.3599427209856438,-1.2555810239963536,0.607939388219346
1.3599427209856438,-1.2555810239963536,1.0207518041044026
1.3599427209856438,-1.2555810239963536,-0.1812321539894198
1.3599427209856438,0.607939388219346,2.407929729939063
1.3599427209856438,0.607939388219346,1.9846776920238938
1.3599427209856438,0.607939388219346,1.0207518041044026
1.3599427209856438,0.607939388219346,-0.1812321539894198
1.3599427209856438,1.0207518041044026,2.407929729939063
1.3599427209856438,1.0207518041044026,1.9846776920238938
1.3599427209856438,1.0207518041044026,-0.1812321539894198
1.3599427209856438,-0.1812321539894198,2.407929729939063
1.3599427209856438,-0.1812321539894198,1.9846776920238938
1.3599427209856438,2.407929729939063,1.9846776920238938
0.1154245360748146,2.469626731867948,-0.11310590336986634
0.1154245360748146,2.469626731867948,-1.2555810239963536
0.1154245360748146,2.469626731867948,0.607939388219346
0.1154245360748146,2.469626731867948,1.0207518041044026
0.1154245360748146,2.469626731867948,-0.1812321539894198
0.1154245360748146,2.469626731867948,2.407929729939063
0.1154245360748146,2.469626731867948,1.9846776920238938
0.1154245360748146,-0.11310590336986634,-1.2555810239963536
0.1154245360748146,-0.11310590336986634,0.607939388219346
0.1154245360748146,-0.11310590336986634,1.0207518041044026
0.1154245360748146,-0.11310590336986634,-0.1812321539894198
0.1154245360748146,-0.11310590336986634,2.407929729939063
0.1154245360748146,-0.11310590336986634,1.9846776920238938
0.1154245360748146,-1.2555810239963536,2.407929729939063
0.1154245360748146,-1.2555810239963536,1.9846776920238938
0.1154245360748146,-1.2555810239963536,0.607939388219346
0.1154245360748146,-1.2555810239963536,1.0207518041044026
0.1154245360748146,-1.2555810239963536,-0.1812321539894198
0.1154245360748146,0.607939388219346,2.407929729939063
0.1154245360748146,0.607939388219346,1.9846776920238938
0.1154245360748146,0.607939388219346,1.0207518041044026
0.1154245360748146,0.607939388219346,-0.1812321539894198
0.1154245360748146,1.0207518041044026,2.407929729939063
0.1154245360748146,1.0207518041044026,1.9846776920238938
0.1154245360748146,1.0207518041044026,-0.1812321539894198
0.1154245360748146,-0.1812321539894198,2.407929729939063
0.1154245360748146,-0.1812321539894198,1.9846776920238938
0.1154245360748146,2.407929729939063,1.9846776920238938
2.469626731867948,-0.11310590336986634,-1.2555810239963536
2.469626731867948,-0.11310590336986634,0.607939388219346
2.469626731867948,-0.11310590336986634,1.0207518041044026
2.469626731867948,-0.11310590336986634,-0.1812321539894198
2.469626731867948,-0.11310590336986634,2.407929729939063
2.469626731867948,-0.11310590336986634,1.9846776920238938
2.469626731867948,-1.2555810239963536,2.407929729939063
2.469626731867948,-1.2555810239963536,1.9846776920238938
2.469626731867948,-1.2555810239963536,0.607939388219346
2.469626731867948,-1.2555810239963536,1.0207518041044026
2.469626731867948,-1.2555810239963536,-0.1812321539894198
2.469626731867948,0.607939388219346,2.407929729939063
2.469626731867948,0.607939388219346,1.9846776920238938
2.469626731867948,0.607939388219346,1.0207518041044026
2.469626731867948,0.607939388219346,-0.1812321539894198
2.469626731867948,1.0207518041044026,2.407929729939063
2.469626731867948,1.0207518041044026,1.9846776920238938
2.469626731867948,1.0207518041044026,-0.1812321539894198
2.469626731867948,-0.1812321539894198,2.407929729939063
2.469626731867948,-0.1812321539894198,1.9846776920238938
2.469626731867948,2.407929729939063,1.9846776920238938
-0.11310590336986634,-1.2555810239963536,2.407929729939063
-0.11310590336986634,-1.2555810239963536,1.9846776920238938
-0.11310590336986634,-1.2555810239963536,0.607939388219346
-0.11310590336986634,-1.2555810239963536,1.0207518041044026
-0.11310590336986634,-1.2555810239963536,-0.1812321539894198
-0.11310590336986634,0.607939388219346,2.407929729939063
-0.11310590336986634,0.607939388219346,1.9846776920238938
-0.11310590336986634,0.607939388219346,1.0207518041044026
-0.11310590336986634,0.607939388219346,-0.1812321539894198
-0.11310590336986634,1.0207518041044026,2.407929729939063
-0.11310590336986634,1.0207518041044026,1.9846776920238938
-0.11310590336986634,1.0207518041044026,-0.1812321539894198
-0.11310590336986634,-0.1812321539894198,2.407929729939063
-0.11310590336986634,-0.1812321539894198,1.9846776920238938
-0.11310590336986634,2.407929729939063,1.9846776920238938
-1.2555810239963536,2.407929729939063,1.9846776920238938
-1.2555810239963536,0.607939388219346,2.407929729939063
-1.2555810239963536,0.607939388219346,1.9846776920238938
-1.2555810239963536,0.607939388219346,1.0207518041044026
-1.2555810239963536,0.607939388219346,-0.1812321539894198
-1.2555810239963536,1.0207518041044026,2.407929729939063
-1.2555810239963536,1.0207518041044026,1.9846776920238938
-1.2555810239963536,1.0207518041044026,-0.1812321539894198
-1.2555810239963536,-0.1812321539894198,2.407929729939063
-1.2555810239963536,-0.1812321539894198,1.9846776920238938
0.607939388219346,2.407929729939063,1.9846776920238938
0.607939388219346,1.0207518041044026,2.407929729939063
0.607939388219346,1.0207518041044026,1.9846776920238938
0.607939388219346,1.0207518041044026,-0.1812321539894198
0.607939388219346,-0.1812321539894198,2.407929729939063
0.607939388219346,-0.1812321539894198,1.9846776920238938
1.0207518041044026,2.407929729939063,1.9846776920238938
1.0207518041044026,-0.1812321539894198,2.407929729939063
1.0207518041044026,-0.1812321539894198,1.9846776920238938
-0.1812321539894198,2.407929729939063,1.9846776920238938
