0,1,2
0.4685341054631986,0.8762074244752942,2.477209718488926
0.4685341054631986,0.8762074244752942,-1.8345998764587894
0.4685341054631986,0.8762074244752942,-0.9929911498008739
0.4685341054631986,0.8762074244752942,2.989892994823047
0.4685341054631986,0.8762074244752942,-4.990904634223622
0.4685341054631986,0.8762074244752942,-0.8440719932226559
0.4685341054631986,0.8762074244752942,-2.969915336825918
0.4685341054631986,0.8762074244752942,1.0874074562302594
0.4685341054631986,2.477209718488926,-1.8345998764587894
0.4685341054631986,2.477209718488926,-0.9929911498008739
0.4685341054631986,2.477209718488926,2.989892994823047
0.4685341054631986,2.477209718488926,-4.990904634223622
0.4685341054631986,2.477209718488926,-0.8440719932226559
0.4685341054631986,2.477209718488926,-2.969915336825918
0.4685341054631986,2.477209718488926,1.0874074562302594
0.4685341054631986,-1.8345998764587894,-0.9929911498008739
0.4685341054631986,-1.8345998764587894,2.989892994823047
0.4685341054631986,-1.8345998764587894,-4.990904634223622
0.4685341054631986,-1.8345998764587894,-0.8440719932226559
0.4685341054631986,-1.8345998764587894,-2.969915336825918
0.4685341054631986,-1.8345998764587894,1.0874074562302594
0.4685341054631986,-0.9929911498008739,-2.969915336825918
0.4685341054631986,-0.9929911498008739,1.0874074562302594
0.4685341054631986,-0.9929911498008739,2.989892994823047
0.4685341054631986,-0.9929911498008739,-4.990904634223622
0.4685341054631986,-0.9929911498008739,-0.8440719932226559
0.4685341054631986,2.989892994823047,-2.969915336825918
0.4685341054631986,2.989892994823047,1.0874074562302594
0.4685341054631986,2.989892994823047,-4.990904634223622
0.4685341054631986,2.989892994823047,-0.8440719932226559
0.4685341054631986,-4.990904634223622,-2.969915336825918
0.4685341054631986,-4.990904634223622,1.0874074562302594
0.4685341054631986,-4.990904634223622,-0.8440719932226559
0.4685341054631986,-0.8440719932226559,-2.969915336825918
0.4685341054631986,-0.8440719932226559,1.0874074562302594
0.4685341054631986,-2.969915336825918,1.0874074562302594
0.8762074244752942,2.477209718488926,-1.8345998764587894
0.8762074244752942,2.477209718488926,-0.9929911498008739
0.8762074244752942,2.477209718488926,2.989892994823047
0.8762074244752942,2.477209718488926,-4.990904634223622
0.8762074244752942,2.477209718488926,-0.8440719932226559
0.8762074244752942,2.477209718488926,-2.969915336825918
0.8762074244752942,2.477209718488926,1.0874074562302594
0.8762074244752942,-1.8345998764587894,-0.9929911498008739
0.8762074244752942,-1.8345998764587894,2.989892994823047
0.8762074244752942,-1.8345998764587894,-4.990904634223622
0.8762074244752942,-1.8345998764587894,-0.8440719932226559
0.8762074244752942,-1.8345998764587894,-2.969915336825918
0.8762074244752942,-1.8345998764587894,1.0874074562302594
0.8762074244752942,-0.9929911498008739,-2.969915336825918
0.8762074244752942,-0.9929911498008739,1.0874074562302594
0.8762074244752942,-0.9929911498008739,2.989892994823047
0.8762074244752942,-0.9929911498008739,-4.990904634223622
0.8762074244752942,-0.9929911498008739,-0.8440719932226559
0.8762074244752942,2.989892994823047,-2.969915336825918
0.8762074244752942,2.989892994823047,1.0874074562302594
0.8762074244752942,2.989892994823047,-4.990904634223622
0.8762074244752942,2.989892994823047,-0.8440719932226559
0.8762074244752942,-4.990904634223622,-2.969915336825918
0.8762074244752942,-4.990904634223622,1.0874074562302594
0.8762074244752942,-4.990904634223622,-0.8440719932226559
0.8762074244752942,-0.8440719932226559,-2.969915336825918
0.8762074244752942,-0.8440719932226559,1.0874074562302594
0.8762074244752942,-2.969915336825918,1.0874074562302594
2.477209718488926,-1.8345998764587894,-0.9929911498008739
2.477209718488926,-1.8345998764587894,2.989892994823047
2.477209718488926,-1.8345998764587894,-4.990904634223622
2.477209718488926,-1.8345998764587894,-0.8440719932226559
2.477209718488926,-1.8345998764587894,-2.969915336825918
2.477209718488926,-1.8345998764587894,1.0874074562302594
2.477209718488926,-0.9929911498008739,-2.969915336825918
2.477209718488926,-0.9929911498008739,1.0874074562302594
2.477209718488926,-0.9929911498008739,2.989892994823047
2.477209718488926,-0.9929911498008739,-4.990904634223622
2.477209718488926,-0.9929911498008739,-0.8440719932226559
2.477209718488926,2.989892994823047,-2.969915336825918
2.477209718488926,2.989892994823047,1.0874074562302594
2.477209718488926,2.989892994823047,-4.990904634223622
2.477209718488926,2.989892994823047,-0.8440719932226559
2.477209718488926,-4.990904634223622,-2.969915336825918
2.477209718488926,-4.990904634223622,1.0874074562302594
2.477209718488926,-4.990904634223622,-0.8440719932226559
2.477209718488926,-0.8440719932226559,-2.969915336825918
2.477209718488926,-0.8440719932226559,1.0874074562302594
2.477209718488926,-2.969915336825918,1.0874074562302594
-1.8345998764587894,-0.9929911498008739,-2.969915336825918
-1.8345998764587894,-0.9929911498008739,1.0874074562302594
-1.8345998764587894,-0.9929911498008739,2.989892994823047
-1.8345998764587894,-0.9929911498008739,-4.990904634223622
-1.8345998764587894,-0.9929911498008739,-0.8440719932226559
-1.8345998764587894,2.989892994823047,-2.969915336825918
-1.8345998764587894,2.989892994823047,1.0874074562302594
-1.8345998764587894,2.989892994823047,-4.990904634223622
-1.8345998764587894,2.989892994823047,-0.8440719932226559
-1.8345998764587894,-4.990904634223622,-2.969915336825918
-1.8345998764587894,-4.990904634223622,1.0874074562302594
-1.8345998764587894,-4.990904634223622,-0.8440719932226559
-1.8345998764587894,-0.8440719932226559,-2.969915336825918
-1.8345998764587894,-0.8440719932226559,1.0874074562302594
-1.8345998764587894,-2.969915336825918,1.0874074562302594
-0.9929911498008739,-2.969915336825918,1.0874074562302594
-0.9929911498008739,2.989892994823047,-2.969915336825918
-0.9929911498008739,2.989892994823047,1.0874074562302594
-0.9929911498008739,2.989892994823047,-4.990904634223622
-0.9929911498008739,2.989892994823047,-0.8440719932226559
-0.9929911498008739,-4.990904634223622,-2.969915336825918
-0.9929911498008739,-4.990904634223622,1.0874074562302594
-0.9929911498008739,-4.990904634223622,-0.8440719932226559
-0.9929911498008739,-0.8440719932226559,-2.969915336825918
-0.9929911498008739,-0.8440719932226559,1.0874074562302594
2.989892994823047,-2.969915336825918,1.0874074562302594
2.989892994823047,-4.990904634223622,-2.969915336825918
2.989892994823047,-4.990904634223622,1.0874074562302594
2.989892994823047,-4.990904634223622,-0.8440719932226559
2.989892994823047,-0.8440719932226559,-2.969915336825918
2.989892994823047,-0.8440719932226559,1.0874074562302594
-4.990904634223622,-2.969915336825918,1.0874074562302594
-4.990904634223622,-0.8440719932226559,-2.969915336825918
-4.990904634223622,-0.8440719932226559,1.0874074562302594
-0.8440719932226559,-2.969915336825918,1.0874074562302594
