0,1,2
0.8459133485869379,-1.0342402766789216,3.2584763383906425
0.8459133485869379,-1.0342402766789216,1.8610547451338468
0.8459133485869379,-1.0342402766789216,-1.7131345795542194
0.8459133485869379,-1.0342402766789216,-1.94815932207399
0.8459133485869379,-1.0342402766789216,-1.7345242880223473
0.8459133485869379,-1.0342402766789216,1.902991703935052
0.8459133485869379,-1.0342402766789216,-1.6537294205956166
0.8459133485869379,-1.0342402766789216,1.4667551179291667
0.8459133485869379,3.2584763383906425,1.8610547451338468
0.8459133485869379,3.2584763383906425,-1.7131345795542194
0.8459133485869379,3.2584763383906425,-1.94815932207399
0.8459133485869379,3.2584763383906425,-1.7345242880223473
0.8459133485869379,3.2584763383906425,1.902991703935052
0.8459133485869379,3.2584763383906425,-1.6537294205956166
0.8459133485869379,3.2584763383906425,1.4667551179291667
0.8459133485869379,1.8610547451338468,-1.7131345795542194
0.8459133485869379,1.8610547451338468,-1.94815932207399
0.8459133485869379,1.8610547451338468,-1.7345242880223473
0.8459133485869379,1.8610547451338468,1.902991703935052
0.8459133485869379,1.8610547451338468,-1.6537294205956166
0.8459133485869379,1.8610547451338468,1.4667551179291667
0.8459133485869379,-1.7131345795542194,-1.6537294205956166
0.8459133485869379,-1.7131345795542194,1.4667551179291667
0.8459133485869379,-1.7131345795542194,-1.94815932207399
0.8459133485869379,-1.7131345795542194,-1.7345242880223473
0.8459133485869379,-1.7131345795542194,1.902991703935052
0.8459133485869379,-1.94815932207399,-1.6537294205956166
0.8459133485869379,-1.94815932207399,1.4667551179291667
0.8459133485869379,-1.94815932207399,-1.7345242880223473
0.8459133485869379,-1.94815932207399,1.902991703935052
0.8459133485869379,-1.7345242880223473,-1.6537294205956166
0.8459133485869379,-1.7345242880223473,1.4667551179291667
0.8459133485869379,-1.7345242880223473,1.902991703935052
0.8459133485869379,1.902991703935052,-1.6537294205956166
0.8459133485869379,1.902991703935052,1.4667551179291667
0.8459133485869379,-1.6537294205956166,1.4667551179291667
-1.0342402766789216,3.2584763383906425,1.8610547451338468
-1.0342402766789216,3.2584763383906425,-1.7131345795542194
-1.0342402766789216,3.2584763383906425,-1.94815932207399
-1.0342402766789216,3.2584763383906425,-1.7345242880223473
-1.0342402766789216,3.2584763383906425,1.902991703935052
-1.0342402766789216,3.2584763383906425,-1.6537294205956166
-1.0342402766789216,3.2584763383906425,1.4667551179291667
-1.0342402766789216,1.8610547451338468,-1.7131345795542194
-1.0342402766789216,1.8610547451338468,-1.94815932207399
-1.0342402766789216,1.8610547451338468,-1.7345242880223473
-1.0342402766789216,1.8610547451338468,1.902991703935052
-1.0342402766789216,1.8610547451338468,-1.6537294205956166
-1.0342402766789216,1.8610547451338468,1.4667551179291667
-1.0342402766789216,-1.7131345795542194,-1.6537294205956166
-1.0342402766789216,-1.7131345795542194,1.4667551179291667
-1.0342402766789216,-1.7131345795542194,-1.94815932207399
-1.0342402766789216,-1.7131345795542194,-1.7345242880223473
-1.0342402766789216,-1.7131345795542194,1.902991703935052
-1.0342402766789216,-1.94815932207399,-1.6537294205956166
-1.0342402766789216,-1.94815932207399,1.4667551179291667
-1.0342402766789216,-1.94815932207399,-1.7345242880223473
-1.0342402766789216,-1.94815932207399,1.902991703935052
-1.0342402766789216,-1.7345242880223473,-1.6537294205956166
-1.0342402766789216,-1.7345242880223473,1.4667551179291667
-1.0342402766789216,-1.7345242880223473,1.902991703935052
-1.0342402766789216,1.902991703935052,-1.6537294205956166
-1.0342402766789216,1.902991703935052,1.4667551179291667
-1.0342402766789216,-1.6537294205956166,1.4667551179291667
3.2584763383906425,1.8610547451338468,-1.7131345795542194
3.2584763383906425,1.8610547451338468,-1.94815932207399
3.2584763383906425,1.8610547451338468,-1.7345242880223473
3.2584763383906425,1.8610547451338468,1.902991703935052
3.2584763383906425,1.8610547451338468,-1.6537294205956166
3.2584763383906425,1.8610547451338468,1.4667551179291667
3.2584763383906425,-1.7131345795542194,-1.6537294205956166
3.2584763383906425,-1.7131345795542194,1.4667551179291667
3.2584763383906425,-1.7131345795542194,-1.94815932207399
3.2584763383906425,-1.7131345795542194,-1.7345242880223473
3.2584763383906425,-1.7131345795542194,1.902991703935052
3.2584763383906425,-1.94815932207399,-1.6537294205956166
3.2584763383906425,-1.94815932207399,1.4667551179291667
3.2584763383906425,-1.94815932207399,-1.7345242880223473
3.2584763383906425,-1.94815932207399,1.902991703935052
3.2584763383906425,-1.7345242880223473,-1.6537294205956166
3.2584763383906425,-1.7345242880223473,1.4667551179291667
3.2584763383906425,-1.7345242880223473,1.902991703935052
3.2584763383906425,1.902991703935052,-1.6537294205956166
3.2584763383906425,1.902991703935052,1.4667551179291667
3.2584763383906425,-1.6537294205956166,1.4667551179291667
1.8610547451338468,-1.7131345795542194,-1.6537294205956166
1.8610547451338468,-1.7131345795542194,1.4667551179291667
1.8610547451338468,-1.7131345795542194,-1.94815932207399
1.8610547451338468,-1.7131345795542194,-1.7345242880223473
1.8610547451338468,-1.7131345795542194,1.902991703935052
1.8610547451338468,-1.94815932207399,-1.6537294205956166
1.8610547451338468,-1.94815932207399,1.4667551179291667
1.8610547451338468,-1.94815932207399,-1.7345242880223473
1.8610547451338468,-1.94815932207399,1.902991703935052
1.8610547451338468,-1.7345242880223473,-1.6537294205956166
1.8610547451338468,-1.7345242880223473,1.4667551179291667
1.8610547451338468,-1.7345242880223473,1.902991703935052
1.8610547451338468,1.902991703935052,-1.6537294205956166
1.8610547451338468,1.902991703935052,1.4667551179291667
1.8610547451338468,-1.6537294205956166,1.4667551179291667
-1.7131345795542194,-1.6537294205956166,1.4667551179291667
-1.7131345795542194,-1.94815932207399,-1.6537294205956166
-1.7131345795542194,-1.94815932207399,1.4667551179291667
-1.7131345795542194,-1.94815932207399,-1.7345242880223473
-1.7131345795542194,-1.94815932207399,1.902991703935052
-1.7131345795542194,-1.7345242880223473,-1.6537294205956166
-1.7131345795542194,-1.7345242880223473,1.4667551179291667
-1.7131345795542194,-1.7345242880223473,1.902991703935052
-1.7131345795542194,1.902991703935052,-1.6537294205956166
-1.7131345795542194,1.902991703935052,1.4667551179291667
-1.94815932207399,-1.6537294205956166,1.4667551179291667
-1.94815932207399,-1.7345242880223473,-1.6537294205956166
-1.94815932207399,-1.7345242880223473,1.4667551179291667
-1.94815932207399,-1.7345242880223473,1.902991703935052
-1.94815932207399,1.902991703935052,-1.6537294205956166
-1.94815932207399,1.902991703935052,1.4667551179291667
-1.7345242880223473,-1.6537294205956166,1.4667551179291667
-1.7345242880223473,1.902991703935052,-1.6537294205956166
-1.7345242880223473,1.902991703935052,1.4667551179291667
1.902991703935052,-1.6537294205956166,1.4667551179291667
