0,1,2
1.521653180735971,1.46100625648574,-0.1860255480848731
1.521653180735971,1.46100625648574,5.94980344503295
1.521653180735971,1.46100625648574,-0.030361618952133632
1.521653180735971,1.46100625648574,2.2459770188053545
1.521653180735971,1.46100625648574,-0.9263323934621205
1.521653180735971,1.46100625648574,0.01450002039482442
1.521653180735971,1.46100625648574,0.472440971763007
1.521653180735971,1.46100625648574,-2.7532490177800115
1.521653180735971,-0.1860255480848731,5.94980344503295
1.521653180735971,-0.1860255480848731,-0.030361618952133632
1.521653180735971,-0.1860255480848731,2.2459770188053545
1.521653180735971,-0.1860255480848731,-0.9263323934621205
1.521653180735971,-0.1860255480848731,0.01450002039482442
1.521653180735971,-0.1860255480848731,0.472440971763007
1.521653180735971,-0.1860255480848731,-2.7532490177800115
1.521653180735971,5.94980344503295,-0.030361618952133632
1.521653180735971,5.94980344503295,2.2459770188053545
1.521653180735971,5.94980344503295,-0.9263323934621205
1.521653180735971,5.94980344503295,0.01450002039482442
1.521653180735971,5.94980344503295,0.472440971763007
1.521653180735971,5.94980344503295,-2.7532490177800115
1.521653180735971,-0.030361618952133632,0.472440971763007
1.521653180735971,-0.030361618952133632,-2.7532490177800115
1.521653180735971,-0.030361618952133632,2.2459770188053545
1.521653180735971,-0.030361618952133632,-0.9263323934621205
1.521653180735971,-0.030361618952133632,0.01450002039482442
1.521653180735971,2.2459770188053545,0.472440971763007
1.521653180735971,2.2459770188053545,-2.7532490177800115
1.521653180735971,2.2459770188053545,-0.9263323934621205
1.521653180735971,2.2459770188053545,0.01450002039482442
1.521653180735971,-0.9263323934621205,0.472440971763007
1.521653180735971,-0.9263323934621205,-2.7532490177800115
1.521653180735971,-0.9263323934621205,0.01450002039482442
1.521653180735971,0.01450002039482442,0.472440971763007
1.521653180735971,0.01450002039482442,-2.7532490177800115
1.521653180735971,0.472440971763007,-2.7532490177800115
1.46100625648574,-0.1860255480848731,5.94980344503295
1.46100625648574,-0.1860255480848731,-0.030361618952133632
1.46100625648574,-0.1860255480848731,2.2459770188053545
1.46100625648574,-0.1860255480848731,-0.9263323934621205
1.46100625648574,-0.1860255480848731,0.01450002039482442
1.46100625648574,-0.1860255480848731,0.472440971763007
1.46100625648574,-0.1860255480848731,-2.7532490177800115
1.46100625648574,5.94980344503295,-0.030361618952133632
1.46100625648574,5.94980344503295,2.2459770188053545
1.46100625648574,5.94980344503295,-0.9263323934621205
1.46100625648574,5.94980344503295,0.01450002039482442
1.46100625648574,5.94980344503295,0.472440971763007
1.46100625648574,5.94980344503295,-2.7532490177800115
1.46100625648574,-0.030361618952133632,0.472440971763007
1.46100625648574,-0.030361618952133632,-2.7532490177800115
1.46100625648574,-0.030361618952133632,2.2459770188053545
1.46100625648574,-0.030361618952133632,-0.9263323934621205
1.46100625648574,-0.030361618952133632,0.01450002039482442
1.46100625648574,2.2459770188053545,0.472440971763007
1.46100625648574,2.2459770188053545,-2.7532490177800115
1.46100625648574,2.2459770188053545,-0.9263323934621205
1.46100625648574,2.2459770188053545,0.01450002039482442
1.46100625648574,-0.9263323934621205,0.472440971763007
1.46100625648574,-0.9263323934621205,-2.7532490177800115
1.46100625648574,-0.9263323934621205,0.01450002039482442
1.46100625648574,0.01450002039482442,0.472440971763007
1.46100625648574,0.01450002039482442,-2.7532490177800115
1.46100625648574,0.472440971763007,-2.7532490177800115
-0.1860255480848731,5.94980344503295,-0.030361618952133632
-0.1860255480848731,5.94980344503295,2.2459770188053545
-0.1860255480848731,5.94980344503295,-0.9263323934621205
-0.1860255480848731,5.94980344503295,0.01450002039482442
-0.1860255480848731,5.94980344503295,0.472440971763007
-0.1860255480848731,5.94980344503295,-2.7532490177800115
-0.1860255480848731,-0.030361618952133632,0.472440971763007
-0.1860255480848731,-0.030361618952133632,-2.7532490177800115
-0.1860255480848731,-0.030361618952133632,2.2459770188053545
-0.1860255480848731,-0.030361618952133632,-0.9263323934621205
-0.1860255480848731,-0.030361618952133632,0.01450002039482442
-0.1860255480848731,2.2459770188053545,0.472440971763007
-0.1860255480848731,2.2459770188053545,-2.7532490177800115
-0.1860255480848731,2.2459770188053545,-0.9263323934621205
-0.1860255480848731,2.2459770188053545,0.01450002039482442
-0.1860255480848731,-0.9263323934621205,0.472440971763007
-0.1860255480848731,-0.9263323934621205,-2.7532490177800115
-0.1860255480848731,-0.9263323934621205,0.01450002039482442
-0.1860255480848731,0.01450002039482442,0.472440971763007
-0.1860255480848731,0.01450002039482442,-2.7532490177800115
-0.1860255480848731,0.472440971763007,-2.7532490177800115
5.94980344503295,-0.030361618952133632,0.472440971763007
5.94980344503295,-0.030361618952133632,-2.7532490177800115
5.94980344503295,-0.030361618952133632,2.2459770188053545
5.94980344503295,-0.030361618952133632,-0.9263323934621205
5.94980344503295,-0.030361618952133632,0.01450002039482442
5.94980344503295,2.2459770188053545,0.472440971763007
5.94980344503295,2.2459770188053545,-2.7532490177800115
5.94980344503295,2.2459770188053545,-0.9263323934621205
5.94980344503295,2.2459770188053545,0.01450002039482442
5.94980344503295,-0.9263323934621205,0.472440971763007
5.94980344503295,-0.9263323934621205,-2.7532490177800115
5.94980344503295,-0.9263323934621205,0.01450002039482442
5.94980344503295,0.01450002039482442,0.472440971763007
5.94980344503295,0.01450002039482442,-2.7532490177800115
5.94980344503295,0.472440971763007,-2.7532490177800115
-0.030361618952133632,0.472440971763007,-2.7532490177800115
-0.030361618952133632,2.2459770188053545,0.472440971763007
-0.030361618952133632,2.2459770188053545,-2.7532490177800115
-0.030361618952133632,2.2459770188053545,-0.9263323934621205
-0.030361618952133632,2.2459770188053545,0.01450002039482442
-0.030361618952133632,-0.9263323934621205,0.472440971763007
-0.030361618952133632,-0.9263323934621205,-2.7532490177800115
-0.030361618952133632,-0.9263323934621205,0.01450002039482442
-0.030361618952133632,0.01450002039482442,0.472440971763007
-0.030361618952133632,0.01450002039482442,-2.7532490177800115
2.2459770188053545,0.472440971763007,-2.7532490177800115
2.2459770188053545,-0.9263323934621205,0.472440971763007
2.2459770188053545,-0.9263323934621205,-2.7532490177800115
2.2459770188053545,-0.9263323934621205,0.01450002039482442
2.2459770188053545,0.01450002039482442,0.472440971763007
2.2459770188053545,0.01450002039482442,-2.7532490177800115
-0.9263323934621205,0.472440971763007,-2.7532490177800115
-0.9263323934621205,0.01450002039482442,0.472440971763007
-0.9263323934621205,0.01450002039482442,-2.7532490177800115
0.01450002039482442,0.472440971763007,-2.7532490177800115
