0,1,2
-2.30654127921118,1.2159519323465462,2.5835842788667502
-2.30654127921118,1.2159519323465462,0.7092495158376648
-2.30654127921118,1.2159519323465462,2.8449513346377038
-2.30654127921118,1.2159519323465462,-0.014671122770989057
-2.30654127921118,1.2159519323465462,0.5130438280154643
-2.30654127921118,1.2159519323465462,-0.3892537036352769
-2.30654127921118,1.2159519323465462,-2.362556262771628
-2.30654127921118,1.2159519323465462,-1.1020638670499991
-2.30654127921118,2.5835842788667502,0.7092495158376648
-2.30654127921118,2.5835842788667502,2.8449513346377038
-2.30654127921118,2.5835842788667502,-0.014671122770989057
-2.30654127921118,2.5835842788667502,0.5130438280154643
-2.30654127921118,2.5835842788667502,-0.3892537036352769
-2.30654127921118,2.5835842788667502,-2.362556262771628
-2.30654127921118,2.5835842788667502,-1.1020638670499991
-2.30654127921118,0.7092495158376648,2.8449513346377038
-2.30654127921118,0.7092495158376648,-0.014671122770989057
-2.30654127921118,0.7092495158376648,0.5130438280154643
-2.30654127921118,0.7092495158376648,-0.3892537036352769
-2.30654127921118,0.7092495158376648,-2.362556262771628
-2.30654127921118,0.7092495158376648,-1.1020638670499991
-2.30654127921118,2.8449513346377038,-2.362556262771628
-2.30654127921118,2.8449513346377038,-1.1020638670499991
-2.30654127921118,2.8449513346377038,-0.014671122770989057
-2.30654127921118,2.8449513346377038,0.5130438280154643
-2.30654127921118,2.8449513346377038,-0.3892537036352769
-2.30654127921118,-0.014671122770989057,-2.362556262771628
-2.30654127921118,-0.014671122770989057,-1.1020638670499991
-2.30654127921118,-0.014671122770989057,0.5130438280154643
-2.30654127921118,-0.014671122770989057,-0.3892537036352769
-2.30654127921118,0.5130438280154643,-2.362556262771628
-2.30654127921118,0.5130438280154643,-1.1020638670499991
-2.30654127921118,0.5130438280154643,-0.3892537036352769
-2.30654127921118,-0.3892537036352769,-2.362556262771628
-2.30654127921118,-0.3892537036352769,-1.1020638670499991
-2.30654127921118,-2.362556262771628,-1.1020638670499991
1.2159519323465462,2.5835842788667502,0.7092495158376648
1.2159519323465462,2.5835842788667502,2.8449513346377038
1.2159519323465462,2.5835842788667502,-0.014671122770989057
1.2159519323465462,2.5835842788667502,0.5130438280154643
1.2159519323465462,2.5835842788667502,-0.3892537036352769
1.2159519323465462,2.5835842788667502,-2.362556262771628
1.2159519323465462,2.5835842788667502,-1.1020638670499991
1.2159519323465462,0.7092495158376648,2.8449513346377038
1.2159519323465462,0.7092495158376648,-0.014671122770989057
1.2159519323465462,0.7092495158376648,0.5130438280154643
1.2159519323465462,0.7092495158376648,-0.3892537036352769
1.2159519323465462,0.7092495158376648,-2.362556262771628
1.2159519323465462,0.7092495158376648,-1.1020638670499991
1.2159519323465462,2.8449513346377038,-2.362556262771628
1.2159519323465462,2.8449513346377038,-1.1020638670499991
1.2159519323465462,2.8449513346377038,-0.014671122770989057
1.2159519323465462,2.8449513346377038,0.5130438280154643
1.2159519323465462,2.8449513346377038,-0.3892537036352769
1.2159519323465462,-0.014671122770989057,-2.362556262771628
1.2159519323465462,-0.014671122770989057,-1.1020638670499991
1.2159519323465462,-0.014671122770989057,0.5130438280154643
1.2159519323465462,-0.014671122770989057,-0.3892537036352769
1.2159519323465462,0.5130438280154643,-2.362556262771628
1.2159519323465462,0.5130438280154643,-1.1020638670499991
1.2159519323465462,0.5130438280154643,-0.3892537036352769
1.2159519323465462,-0.3892537036352769,-2.362556262771628
1.2159519323465462,-0.3892537036352769,-1.1020638670499991
1.2159519323465462,-2.362556262771628,-1.1020638670499991
2.5835842788667502,0.7092495158376648,2.8449513346377038
2.5835842788667502,0.7092495158376648,-0.014671122770989057
2.5835842788667502,0.7092495158376648,0.5130438280154643
2.5835842788667502,0.7092495158376648,-0.3892537036352769
2.5835842788667502,0.7092495158376648,-2.362556262771628
2.5835842788667502,0.7092495158376648,-1.1020638670499991
2.5835842788667502,2.8449513346377038,-2.362556262771628
2.5835842788667502,2.8449513346377038,-1.1020638670499991
2.5835842788667502,2.8449513346377038,-0.014671122770989057
2.5835842788667502,2.8449513346377038,0.5130438280154643
2.5835842788667502,2.8449513346377038,-0.3892537036352769
2.5835842788667502,-0.014671122770989057,-2.362556262771628
2.5835842788667502,-0.014671122770989057,-1.1020638670499991
2.5835842788667502,-0.014671122770989057,0.5130438280154643
2.5835842788667502,-0.014671122770989057,-0.3892537036352769
2.5835842788667502,0.5130438280154643,-2.362556262771628
2.5835842788667502,0.5130438280154643,-1.1020638670499991
2.5835842788667502,0.5130438280154643,-0.3892537036352769
2.5835842788667502,-0.3892537036352769,-2.362556262771628
2.5835842788667502,-0.3892537036352769,-1.1020638670499991
2.5835842788667502,-2.362556262771628,-1.1020638670499991
0.7092495158376648,2.8449513346377038,-2.362556262771628
0.7092495158376648,2.8449513346377038,-1.1020638670499991
0.7092495158376648,2.8449513346377038,-0.014671122770989057
0.7092495158376648,2.8449513346377038,0.5130438280154643
0.7092495158376648,2.8449513346377038,-0.3892537036352769
0.7092495158376648,-0.014671122770989057,-2.362556262771628
0.7092495158376648,-0.014671122770989057,-1.1020638670499991
0.7092495158376648,-0.014671122770989057,0.5130438280154643
0.7092495158376648,-0.014671122770989057,-0.3892537036352769
0.7092495158376648,0.5130438280154643,-2.362556262771628
0.7092495158376648,0.5130438280154643,-1.1020638670499991
0.7092495158376648,0.5130438280154643,-0.3892537036352769
0.7092495158376648,-0.3892537036352769,-2.362556262771628
0.7092495158376648,-0.3892537036352769,-1.1020638670499991
0.7092495158376648,-2.362556262771628,-1.1020638670499991
2.8449513346377038,-2.362556262771628,-1.1020638670499991
2.8449513346377038,-0.014671122770989057,-2.362556262771628
2.8449513346377038,-0.014671122770989057,-1.1020638670499991
2.8449513346377038,-0.014671122770989057,0.5130438280154643
2.8449513346377038,-0.014671122770989057,-0.3892537036352769
2.8449513346377038,0.5130438280154643,-2.362556262771628
2.8449513346377038,0.5130438280154643,-1.1020638670499991
2.8449513346377038,0.5130438280154643,-0.3892537036352769
2.8449513346377038,-0.3892537036352769,-2.362556262771628
2.8449513346377038,-0.3892537036352769,-1.1020638670499991
-0.014671122770989057,-2.362556262771628,-1.1020638670499991
-0.014671122770989057,0.5130438280154643,-2.362556262771628
-0.014671122770989057,0.5130438280154643,-1.1020638670499991
-0.014671122770989057,0.5130438280154643,-0.3892537036352769
-0.014671122770989057,-0.3892537036352769,-2.362556262771628
-0.014671122770989057,-0.3892537036352769,-1.1020638670499991
0.5130438280154643,-2.362556262771628,-1.1020638670499991
0.5130438280154643,-0.3892537036352769,-2.362556262771628
0.5130438280154643,-0.3892537036352769,-1.1020638670499991
-0.3892537036352769,-2.362556262771628,-1.1020638670499991
