0,1,2
4.865723152303417,0.8170553208429234,-0.7646183892674236
4.865723152303417,0.8170553208429234,0.945104490811384
4.865723152303417,0.8170553208429234,1.3510778133691868
4.865723152303417,0.8170553208429234,2.652046564383076
4.865723152303417,0.8170553208429234,2.0956807602684018
4.865723152303417,0.8170553208429234,-0.5429409184663805
4.865723152303417,0.8170553208429234,-5.450410531926855
4.865723152303417,0.8170553208429234,0.2785498532982506
4.865723152303417,-0.7646183892674236,0.945104490811384
4.865723152303417,-0.7646183892674236,1.3510778133691868
4.865723152303417,-0.7646183892674236,2.652046564383076
4.865723152303417,-0.7646183892674236,2.0956807602684018
4.865723152303417,-0.7646183892674236,-0.5429409184663805
4.865723152303417,-0.7646183892674236,-5.450410531926855
4.865723152303417,-0.7646183892674236,0.2785498532982506
4.865723152303417,0.945104490811384,1.3510778133691868
4.865723152303417,0.945104490811384,2.652046564383076
4.865723152303417,0.945104490811384,2.0956807602684018
4.865723152303417,0.945104490811384,-0.5429409184663805
4.865723152303417,0.945104490811384,-5.450410531926855
4.865723152303417,0.945104490811384,0.2785498532982506
4.865723152303417,1.3510778133691868,-5.450410531926855
4.865723152303417,1.3510778133691868,0.2785498532982506
4.865723152303417,1.3510778133691868,2.652046564383076
4.865723152303417,1.3510778133691868,2.0956807602684018
4.865723152303417,1.3510778133691868,-0.5429409184663805
4.865723152303417,2.652046564383076,-5.450410531926855
4.865723152303417,2.652046564383076,0.2785498532982506
4.865723152303417,2.652046564383076,2.0956807602684018
4.865723152303417,2.652046564383076,-0.5429409184663805
4.865723152303417,2.0956807602684018,-5.450410531926855
4.865723152303417,2.0956807602684018,0.2785498532982506
4.865723152303417,2.0956807602684018,-0.5429409184663805
4.865723152303417,-0.5429409184663805,-5.450410531926855
4.865723152303417,-0.5429409184663805,0.2785498532982506
4.865723152303417,-5.450410531926855,0.2785498532982506
0.8170553208429234,-0.7646183892674236,0.945104490811384
0.8170553208429234,-0.7646183892674236,1.3510778133691868
0.8170553208429234,-0.7646183892674236,2.652046564383076
0.8170553208429234,-0.7646183892674236,2.0956807602684018
0.8170553208429234,-0.7646183892674236,-0.5429409184663805
0.8170553208429234,-0.7646183892674236,-5.450410531926855
0.8170553208429234,-0.7646183892674236,0.2785498532982506
0.8170553208429234,0.945104490811384,1.3510778133691868
0.8170553208429234,0.945104490811384,2.652046564383076
0.8170553208429234,0.945104490811384,2.0956807602684018
0.8170553208429234,0.945104490811384,-0.5429409184663805
0.8170553208429234,0.945104490811384,-5.450410531926855
0.8170553208429234,0.945104490811384,0.2785498532982506
0.8170553208429234,1.3510778133691868,-5.450410531926855
0.8170553208429234,1.3510778133691868,0.2785498532982506
0.8170553208429234,1.3510778133691868,2.652046564383076
0.8170553208429234,1.3510778133691868,2.0956807602684018
0.8170553208429234,1.3510778133691868,-0.5429409184663805
0.8170553208429234,2.652046564383076,-5.450410531926855
0.8170553208429234,2.652046564383076,0.2785498532982506
0.8170553208429234,2.652046564383076,2.0956807602684018
0.8170553208429234,2.652046564383076,-0.5429409184663805
0.8170553208429234,2.0956807602684018,-5.450410531926855
0.8170553208429234,2.0956807602684018,0.2785498532982506
0.8170553208429234,2.0956807602684018,-0.5429409184663805
0.8170553208429234,-0.5429409184663805,-5.450410531926855
0.8170553208429234,-0.5429409184663805,0.2785498532982506
0.8170553208429234,-5.450410531926855,0.2785498532982506
-0.7646183892674236,0.945104490811384,1.3510778133691868
-0.7646183892674236,0.945104490811384,2.652046564383076
-0.7646183892674236,0.945104490811384,2.0956807602684018
-0.7646183892674236,0.945104490811384,-0.5429409184663805
-0.7646183892674236,0.945104490811384,-5.450410531926855
-0.7646183892674236,0.945104490811384,0.2785498532982506
-0.7646183892674236,1.3510778133691868,-5.450410531926855
-0.7646183892674236,1.3510778133691868,0.2785498532982506
-0.7646183892674236,1.3510778133691868,2.652046564383076
-0.7646183892674236,1.3510778133691868,2.0956807602684018
-0.7646183892674236,1.3510778133691868,-0.5429409184663805
-0.7646183892674236,2.652046564383076,-5.450410531926855
-0.7646183892674236,2.652046564383076,0.2785498532982506
-0.7646183892674236,2.652046564383076,2.0956807602684018
-0.7646183892674236,2.652046564383076,-0.5429409184663805
-0.7646183892674236,2.0956807602684018,-5.450410531926855
-0.7646183892674236,2.0956807602684018,0.2785498532982506
-0.7646183892674236,2.0956807602684018,-0.5429409184663805
-0.7646183892674236,-0.5429409184663805,-5.450410531926855
-0.7646183892674236,-0.5429409184663805,0.2785498532982506
-0.7646183892674236,-5.450410531926855,0.2785498532982506
0.945104490811384,1.3510778133691868,-5.450410531926855
0.945104490811384,1.3510778133691868,0.2785498532982506
0.945104490811384,1.3510778133691868,2.652046564383076
0.945104490811384,1.3510778133691868,2.0956807602684018
0.945104490811384,1.3510778133691868,-0.5429409184663805
0.945104490811384,2.652046564383076,-5.450410531926855
0.945104490811384,2.652046564383076,0.2785498532982506
0.945104490811384,2.652046564383076,2.0956807602684018
0.945104490811384,2.652046564383076,-0.5429409184663805
0.945104490811384,2.0956807602684018,-5.450410531926855
0.945104490811384,2.0956807602684018,0.2785498532982506
0.945104490811384,2.0956807602684018,-0.5429409184663805
0.945104490811384,-0.5429409184663805,-5.450410531926855
0.945104490811384,-0.5429409184663805,0.2785498532982506
0.945104490811384,-5.450410531926855,0.2785498532982506
1.3510778133691868,-5.450410531926855,0.2785498532982506
1.3510778133691868,2.652046564383076,-5.450410531926855
1.3510778133691868,2.652046564383076,0.2785498532982506
1.3510778133691868,2.652046564383076,2.0956807602684018
1.3510778133691868,2.652046564383076,-0.5429409184663805
1.3510778133691868,2.0956807602684018,-5.450410531926855
1.3510778133691868,2.0956807602684018,0.2785498532982506
1.3510778133691868,2.0956807602684018,-0.5429409184663805
1.3510778133691868,-0.5429409184663805,-5.450410531926855
1.3510778133691868,-0.5429409184663805,0.2785498532982506
2.652046564383076,-5.450410531926855,0.2785498532982506
2.652046564383076,2.0956807602684018,-5.450410531926855
2.652046564383076,2.0956807602684018,0.2785498532982506
2.652046564383076,2.0956807602684018,-0.5429409184663805
2.652046564383076,-0.5429409184663805,-5.450410531926855
2.652046564383076,-0.5429409184663805,0.2785498532982506
2.0956807602684018,-5.450410531926855,0.2785498532982506
2.0956807602684018,-0.5429409184663805,-5.450410531926855
2.0956807602684018,-0.5429409184663805,0.2785498532982506
-0.5429409184663805,-5.450410531926855,0.2785498532982506
