0,1,2
-0.6750202338882052,-0.268019117695955,-2.6472425322352833
-0.6750202338882052,-0.268019117695955,-0.4602644553105022
-0.6750202338882052,-0.268019117695955,-1.274543144921431
-0.6750202338882052,-0.268019117695955,0.33194348963372466
-0.6750202338882052,-0.268019117695955,-1.6419673434779938
-0.6750202338882052,-0.268019117695955,-0.8133292440879957
-0.6750202338882052,-0.268019117695955,1.3373969081222308
-0.6750202338882052,-0.268019117695955,-1.26193024115351
-0.6750202338882052,-2.6472425322352833,-0.4602644553105022
-0.6750202338882052,-2.6472425322352833,-1.274543144921431
-0.6750202338882052,-2.6472425322352833,0.33194348963372466
-0.6750202338882052,-2.6472425322352833,-1.6419673434779938
-0.6750202338882052,-2.6472425322352833,-0.8133292440879957
-0.6750202338882052,-2.6472425322352833,1.3373969081222308
-0.6750202338882052,-2.6472425322352833,-1.26193024115351
-0.6750202338882052,-0.4602644553105022,-1.274543144921431
-0.6750202338882052,-0.4602644553105022,0.33194348963372466
-0.6750202338882052,-0.4602644553105022,-1.6419673434779938
-0.6750202338882052,-0.4602644553105022,-0.8133292440879957
-0.6750202338882052,-0.4602644553105022,1.3373969081222308
-0.6750202338882052,-0.4602644553105022,-1.26193024115351
-0.6750202338882052,-1.274543144921431,1.3373969081222308
-0.6750202338882052,-1.274543144921431,-1.26193024115351
-0.6750202338882052,-1.274543144921431,0.33194348963372466
-0.6750202338882052,-1.274543144921431,-1.6419673434779938
-0.6750202338882052,-1.274543144921431,-0.8133292440879957
-0.6750202338882052,0.33194348963372466,1.3373969081222308
-0.6750202338882052,0.33194348963372466,-1.26193024115351
-0.6750202338882052,0.33194348963372466,-1.6419673434779938
-0.6750202338882052,0.33194348963372466,-0.8133292440879957
-0.6750202338882052,-1.6419673434779938,1.3373969081222308
-0.6750202338882052,-1.6419673434779938,-1.26193024115351
-0.6750202338882052,-1.6419673434779938,-0.8133292440879957
-0.6750202338882052,-0.8133292440879957,1.3373969081222308
-0.6750202338882052,-0.8133292440879957,-1.26193024115351
-0.6750202338882052,1.3373969081222308,-1.26193024115351
-0.268019117695955,-2.6472425322352833,-0.4602644553105022
-0.268019117695955,-2.6472425322352833,-1.274543144921431
-0.268019117695955,-2.6472425322352833,0.33194348963372466
-0.268019117695955,-2.6472425322352833,-1.6419673434779938
-0.268019117695955,-2.6472425322352833,-0.8133292440879957
-0.268019117695955,-2.6472425322352833,1.3373969081222308
-0.268019117695955,-2.6472425322352833,-1.26193024115351
-0.268019117695955,-0.4602644553105022,-1.274543144921431
-0.268019117695955,-0.4602644553105022,0.33194348963372466
-0.268019117695955,-0.4602644553105022,-1.6419673434779938
-0.268019117695955,-0.4602644553105022,-0.8133292440879957
-0.268019117695955,-0.4602644553105022,1.3373969081222308
-0.268019117695955,-0.4602644553105022,-1.26193024115351
-0.268019117695955,-1.274543144921431,1.3373969081222308
-0.268019117695955,-1.274543144921431,-1.26193024115351
-0.268019117695955,-1.274543144921431,0.33194348963372466
-0.268019117695955,-1.274543144921431,-1.6419673434779938
-0.268019117695955,-1.274543144921431,-0.8133292440879957
-0.268019117695955,0.33194348963372466,1.3373969081222308
-0.268019117695955,0.33194348963372466,-1.26193024115351
-0.268019117695955,0.33194348963372466,-1.6419673434779938
-0.268019117695955,0.33194348963372466,-0.8133292440879957
-0.268019117695955,-1.6419673434779938,1.3373969081222308
-0.268019117695955,-1.6419673434779938,-1.26193024115351
-0.268019117695955,-1.6419673434779938,-0.8133292440879957
-0.268019117695955,-0.8133292440879957,1.3373969081222308
-0.268019117695955,-0.8133292440879957,-1.26193024115351
-0.268019117695955,1.3373969081222308,-1.26193024115351
-2.6472425322352833,-0.4602644553105022,-1.274543144921431
-2.6472425322352833,-0.4602644553105022,0.33194348963372466
-2.6472425322352833,-0.4602644553105022,-1.6419673434779938
-2.6472425322352833,-0.4602644553105022,-0.8133292440879957
-2.6472425322352833,-0.4602644553105022,1.3373969081222308
-2.6472425322352833,-0.4602644553105022,-1.26193024115351
-2.6472425322352833,-1.274543144921431,1.3373969081222308
-2.6472425322352833,-1.274543144921431,-1.26193024115351
-2.6472425322352833,-1.274543144921431,0.33194348963372466
-2.6472425322352833,-1.274543144921431,-1.6419673434779938
-2.6472425322352833,-1.274543144921431,-0.8133292440879957
-2.6472425322352833,0.33194348963372466,1.3373969081222308
-2.6472425322352833,0.33194348963372466,-1.26193024115351
-2.6472425322352833,0.33194348963372466,-1.6419673434779938
-2.6472425322352833,0.33194348963372466,-0.8133292440879957
-2.6472425322352833,-1.6419673434779938,1.3373969081222308
-2.6472425322352833,-1.6419673434779938,-1.26193024115351
-2.6472425322352833,-1.6419673434779938,-0.8133292440879957
-2.6472425322352833,-0.8133292440879957,1.3373969081222308
-2.6472425322352833,-0.8133292440879957,-1.26193024115351
-2.6472425322352833,1.3373969081222308,-1.26193024115351
-0.4602644553105022,-1.274543144921431,1.3373969081222308
-0.4602644553105022,-1.274543144921431,-1.26193024115351
-0.4602644553105022,-1.274543144921431,0.33194348963372466
-0.4602644553105022,-1.274543144921431,-1.6419673434779938
-0.4602644553105022,-1.274543144921431,-0.8133292440879957
-0.4602644553105022,0.33194348963372466,1.3373969081222308
-0.4602644553105022,0.33194348963372466,-1.26193024115351
-0.4602644553105022,0.33194348963372466,-1.6419673434779938
-0.4602644553105022,0.33194348963372466,-0.8133292440879957
-0.4602644553105022,-1.6419673434779938,1.3373969081222308
-0.4602644553105022,-1.6419673434779938,-1.26193024115351
-0.4602644553105022,-1.6419673434779938,-0.8133292440879957
-0.4602644553105022,-0.8133292440879957,1.3373969081222308
-0.4602644553105022,-0.8133292440879957,-1.26193024115351
-0.4602644553105022,1.3373969081222308,-1.26193024115351
-1.274543144921431,1.3373969081222308,-1.26193024115351
-1.274543144921431,0.33194348963372466,1.3373969081222308
-1.274543144921431,0.33194348963372466,-1.26193024115351
-1.274543144921431,0.33194348963372466,-1.6419673434779938
-1.274543144921431,0.33194348963372466,-0.8133292440879957
-1.274543144921431,-1.6419673434779938,1.3373969081222308
-1.274543144921431,-1.6419673434779938,-1.26193024115351
-1.274543144921431,-1.6419673434779938,-0.8133292440879957
-1.274543144921431,-0.8133292440879957,1.3373969081222308
-1.274543144921431,-0.8133292440879957,-1.26193024115351
0.33194348963372466,1.3373969081222308,-1.26193024115351
0.33194348963372466,-1.6419673434779938,1.3373969081222308
0.33194348963372466,-1.6419673434779938,-1.26193024115351
0.33194348963372466,-1.6419673434779938,-0.8133292440879957
0.33194348963372466,-0.8133292440879957,1.3373969081222308
0.33194348963372466,-0.8133292440879957,-1.26193024115351
-1.6419673434779938,1.3373969081222308,-1.26193024115351
-1.6419673434779938,-0.8133292440879957,1.3373969081222308
-1.6419673434779938,-0.8133292440879957,-1.26193024115351
-0.8133292440879957,1.3373969081222308,-1.26193024115351
