0,1,2
-0.050512637400011634,1.6714999250517233,-0.32067969501943183
-0.050512637400011634,1.6714999250517233,-1.5108927634526146
-0.050512637400011634,1.6714999250517233,-0.002848957332852279
-0.050512637400011634,1.6714999250517233,-1.0916463802858984
-0.050512637400011634,1.6714999250517233,2.0899110336068873
-0.050512637400011634,1.6714999250517233,-1.5843851991052849
-0.050512637400011634,1.6714999250517233,-0.13935859618323101
-0.050512637400011634,1.6714999250517233,-1.2341872621187318
-0.050512637400011634,-0.32067969501943183,-1.5108927634526146
-0.050512637400011634,-0.32067969501943183,-0.002848957332852279
-0.050512637400011634,-0.32067969501943183,-1.0916463802858984
-0.050512637400011634,-0.32067969501943183,2.0899110336068873
-0.050512637400011634,-0.32067969501943183,-1.5843851991052849
-0.050512637400011634,-0.32067969501943183,-0.13935859618323101
-0.050512637400011634,-0.32067969501943183,-1.2341872621187318
-0.050512637400011634,-1.5108927634526146,-0.002848957332852279
-0.050512637400011634,-1.5108927634526146,-1.0916463802858984
-0.050512637400011634,-1.5108927634526146,2.0899110336068873
-0.050512637400011634,-1.5108927634526146,-1.5843851991052849
-0.050512637400011634,-1.5108927634526146,-0.13935859618323101
-0.050512637400011634,-1.5108927634526146,-1.2341872621187318
-0.050512637400011634,-0.002848957332852279,-0.13935859618323101
-0.050512637400011634,-0.002848957332852279,-1.2341872621187318
-0.050512637400011634,-0.002848957332852279,-1.0916463802858984
-0.050512637400011634,-0.002848957332852279,2.0899110336068873
-0.050512637400011634,-0.002848957332852279,-1.5843851991052849
-0.050512637400011634,-1.0916463802858984,-0.13935859618323101
-0.050512637400011634,-1.0916463802858984,-1.2341872621187318
-0.050512637400011634,-1.0916463802858984,2.0899110336068873
-0.050512637400011634,-1.0916463802858984,-1.5843851991052849
-0.050512637400011634,2.0899110336068873,-0.13935859618323101
-0.050512637400011634,2.0899110336068873,-1.2341872621187318
-0.050512637400011634,2.0899110336068873,-1.5843851991052849
-0.050512637400011634,-1.5843851991052849,-0.13935859618323101
-0.050512637400011634,-1.5843851991052849,-1.2341872621187318
-0.050512637400011634,-0.13935859618323101,-1.2341872621187318
1.6714999250517233,-0.32067969501943183,-1.5108927634526146
1.6714999250517233,-0.32067969501943183,-0.002848957332852279
1.6714999250517233,-0.32067969501943183,-1.0916463802858984
1.6714999250517233,-0.32067969501943183,2.0899110336068873
1.6714999250517233,-0.32067969501943183,-1.5843851991052849
1.6714999250517233,-0.32067969501943183,-0.13935859618323101
1.6714999250517233,-0.32067969501943183,-1.2341872621187318
1.6714999250517233,-1.5108927634526146,-0.002848957332852279
1.6714999250517233,-1.5108927634526146,-1.0916463802858984
1.6714999250517233,-1.5108927634526146,2.0899110336068873
1.6714999250517233,-1.5108927634526146,-1.5843851991052849
1.6714999250517233,-1.5108927634526146,-0.13935859618323101
1.6714999250517233,-1.5108927634526146,-1.2341872621187318
1.6714999250517233,-0.002848957332852279,-0.13935859618323101
1.6714999250517233,-0.002848957332852279,-1.2341872621187318
1.6714999250517233,-0.002848957332852279,-1.0916463802858984
1.6714999250517233,-0.002848957332852279,2.0899110336068873
1.6714999250517233,-0.002848957332852279,-1.5843851991052849
1.6714999250517233,-1.0916463802858984,-0.13935859618323101
1.6714999250517233,-1.0916463802858984,-1.2341872621187318
1.6714999250517233,-1.0916463802858984,2.0899110336068873
1.6714999250517233,-1.0916463802858984,-1.5843851991052849
1.6714999250517233,2.0899110336068873,-0.13935859618323101
1.6714999250517233,2.0899110336068873,-1.2341872621187318
1.6714999250517233,2.0899110336068873,-1.5843851991052849
1.6714999250517233,-1.5843851991052849,-0.13935859618323101
1.6714999250517233,-1.5843851991052849,-1.2341872621187318
1.6714999250517233,-0.13935859618323101,-1.2341872621187318
-0.32067969501943183,-1.5108927634526146,-0.002848957332852279
-0.32067969501943183,-1.5108927634526146,-1.0916463802858984
-0.32067969501943183,-1.5108927634526146,2.0899110336068873
-0.32067969501943183,-1.5108927634526146,-1.5843851991052849
-0.32067969501943183,-1.5108927634526146,-0.13935859618323101
-0.32067969501943183,-1.5108927634526146,-1.2341872621187318
-0.32067969501943183,-0.002848957332852279,-0.13935859618323101
-0.32067969501943183,-0.002848957332852279,-1.2341872621187318
-0.32067969501943183,-0.002848957332852279,-1.0916463802858984
-0.32067969501943183,-0.002848957332852279,2.0899110336068873
-0.32067969501943183,-0.002848957332852279,-1.5843851991052849
-0.32067969501943183,-1.0916463802858984,-0.13935859618323101
-0.32067969501943183,-1.0916463802858984,-1.2341872621187318
-0.32067969501943183,-1.0916463802858984,2.0899110336068873
-0.32067969501943183,-1.0916463802858984,-1.5843851991052849
-0.32067969501943183,2.0899110336068873,-0.13935859618323101
-0.32067969501943183,2.0899110336068873,-1.2341872621187318
-0.32067969501943183,2.0899110336068873,-1.5843851991052849
-0.32067969501943183,-1.5843851991052849,-0.13935859618323101
-0.32067969501943183,-1.5843851991052849,-1.2341872621187318
-0.32067969501943183,-0.13935859618323101,-1.2341872621187318
-1.5108927634526146,-0.002848957332852279,-0.13935859618323101
-1.5108927634526146,-0.002848957332852279,-1.2341872621187318
-1.5108927634526146,-0.002848957332852279,-1.0916463802858984
-1.5108927634526146,-0.002848957332852279,2.0899110336068873
-1.5108927634526146,-0.002848957332852279,-1.5843851991052849
-1.5108927634526146,-1.0916463802858984,-0.13935859618323101
-1.5108927634526146,-1.0916463802858984,-1.2341872621187318
-1.5108927634526146,-1.0916463802858984,2.0899110336068873
-1.5108927634526146,-1.0916463802858984,-1.5843851991052849
-1.5108927634526146,2.0899110336068873,-0.13935859618323101
-1.5108927634526146,2.0899110336068873,-1.2341872621187318
-1.5108927634526146,2.0899110336068873,-1.5843851991052849
-1.5108927634526146,-1.5843851991052849,-0.13935859618323101
-1.5108927634526146,-1.5843851991052849,-1.2341872621187318
-1.5108927634526146,-0.13935859618323101,-1.2341872621187318
-0.002848957332852279,-0.13935859618323101,-1.2341872621187318
-0.002848957332852279,-1.0916463802858984,-0.13935859618323101
-0.002848957332852279,-1.0916463802858984,-1.2341872621187318
-0.002848957332852279,-1.0916463802858984,2.0899110336068873
-0.002848957332852279,-1.0916463802858984,-1.5843851991052849
-0.002848957332852279,2.0899110336068873,-0.13935859618323101
-0.002848957332852279,2.0899110336068873,-1.2341872621187318
-0.002848957332852279,2.0899110336068873,-1.5843851991052849
-0.002848957332852279,-1.5843851991052849,-0.13935859618323101
-0.002848957332852279,-1.5843851991052849,-1.2341872621187318
-1.0916463802858984,-0.13935859618323101,-1.2341872621187318
-1.0916463802858984,2.0899110336068873,-0.13935859618323101
-1.0916463802858984,2.0899110336068873,-1.2341872621187318
-1.0916463802858984,2.0899110336068873,-1.5843851991052849
-1.0916463802858984,-1.5843851991052849,-0.13935859618323101
-1.0916463802858984,-1.5843851991052849,-1.2341872621187318
2.0899110336068873,-0.13935859618323101,-1.2341872621187318
2.0899110336068873,-1.5843851991052849,-0.13935859618323101
2.0899110336068873,-1.5843851991052849,-1.2341872621187318
-1.5843851991052849,-0.13935859618323101,-1.2341872621187318
