0,1,2
2.808913639550441,-1.490175567401886,2.7105871123457863
2.808913639550441,-1.490175567401886,0.7614317892361161
2.808913639550441,-1.490175567401886,0.9510894276515401
2.808913639550441,-1.490175567401886,-1.9585591064878805
2.808913639550441,-1.490175567401886,-2.712357798890987
2.808913639550441,-1.490175567401886,2.886092817718114
2.808913639550441,-1.490175567401886,1.23509533967533
2.808913639550441,-1.490175567401886,-1.2435992684586965
2.808913639550441,2.7105871123457863,0.7614317892361161
2.808913639550441,2.7105871123457863,0.9510894276515401
2.808913639550441,2.7105871123457863,-1.9585591064878805
2.808913639550441,2.7105871123457863,-2.712357798890987
2.808913639550441,2.7105871123457863,2.886092817718114
2.808913639550441,2.7105871123457863,1.23509533967533
2.808913639550441,2.7105871123457863,-1.2435992684586965
2.808913639550441,0.7614317892361161,0.9510894276515401
2.808913639550441,0.7614317892361161,-1.9585591064878805
2.808913639550441,0.7614317892361161,-2.712357798890987
2.808913639550441,0.7614317892361161,2.886092817718114
2.808913639550441,0.7614317892361161,1.23509533967533
2.808913639550441,0.7614317892361161,-1.2435992684586965
2.808913639550441,0.9510894276515401,1.23509533967533
2.808913639550441,0.9510894276515401,-1.2435992684586965
2.808913639550441,0.9510894276515401,-1.9585591064878805
2.808913639550441,0.9510894276515401,-2.712357798890987
2.808913639550441,0.9510894276515401,2.886092817718114
2.808913639550441,-1.9585591064878805,1.23509533967533
2.808913639550441,-1.9585591064878805,-1.2435992684586965
2.808913639550441,-1.9585591064878805,-2.712357798890987
2.808913639550441,-1.9585591064878805,2.886092817718114
2.808913639550441,-2.712357798890987,1.23509533967533
2.808913639550441,-2.712357798890987,-1.2435992684586965
2.808913639550441,-2.712357798890987,2.886092817718114
2.808913639550441,2.886092817718114,1.23509533967533
2.808913639550441,2.886092817718114,-1.2435992684586965
2.808913639550441,1.23509533967533,-1.2435992684586965
-1.490175567401886,2.7105871123457863,0.7614317892361161
-1.490175567401886,2.7105871123457863,0.9510894276515401
-1.490175567401886,2.7105871123457863,-1.9585591064878805
-1.490175567401886,2.7105871123457863,-2.712357798890987
-1.490175567401886,2.7105871123457863,2.886092817718114
-1.490175567401886,2.7105871123457863,1.23509533967533
-1.490175567401886,2.7105871123457863,-1.2435992684586965
-1.490175567401886,0.7614317892361161,0.9510894276515401
-1.490175567401886,0.7614317892361161,-1.9585591064878805
-1.490175567401886,0.7614317892361161,-2.712357798890987
-1.490175567401886,0.7614317892361161,2.886092817718114
-1.490175567401886,0.7614317892361161,1.23509533967533
-1.490175567401886,0.7614317892361161,-1.2435992684586965
-1.490175567401886,0.9510894276515401,1.23509533967533
-1.490175567401886,0.9510894276515401,-1.2435992684586965
-1.490175567401886,0.9510894276515401,-1.9585591064878805
-1.490175567401886,0.9510894276515401,-2.712357798890987
-1.490175567401886,0.9510894276515401,2.886092817718114
-1.490175567401886,-1.9585591064878805,1.23509533967533
-1.490175567401886,-1.9585591064878805,-1.2435992684586965
-1.490175567401886,-1.9585591064878805,-2.712357798890987
-1.490175567401886,-1.9585591064878805,2.886092817718114
-1.490175567401886,-2.712357798890987,1.23509533967533
-1.490175567401886,-2.712357798890987,-1.2435992684586965
-1.490175567401886,-2.712357798890987,2.886092817718114
-1.490175567401886,2.886092817718114,1.23509533967533
-1.490175567401886,2.886092817718114,-1.2435992684586965
-1.490175567401886,1.23509533967533,-1.2435992684586965
2.7105871123457863,0.7614317892361161,0.9510894276515401
2.7105871123457863,0.7614317892361161,-1.9585591064878805
2.7105871123457863,0.7614317892361161,-2.712357798890987
2.7105871123457863,0.7614317892361161,2.886092817718114
2.7105871123457863,0.7614317892361161,1.23509533967533
2.7105871123457863,0.7614317892361161,-1.2435992684586965
2.7105871123457863,0.9510894276515401,1.23509533967533
2.7105871123457863,0.9510894276515401,-1.2435992684586965
2.7105871123457863,0.9510894276515401,-1.9585591064878805
2.7105871123457863,0.9510894276515401,-2.712357798890987
2.7105871123457863,0.9510894276515401,2.886092817718114
2.7105871123457863,-1.9585591064878805,1.23509533967533
2.7105871123457863,-1.9585591064878805,-1.2435992684586965
2.7105871123457863,-1.9585591064878805,-2.712357798890987
2.7105871123457863,-1.9585591064878805,2.886092817718114
2.7105871123457863,-2.712357798890987,1.23509533967533
2.7105871123457863,-2.712357798890987,-1.2435992684586965
2.7105871123457863,-2.712357798890987,2.886092817718114
2.7105871123457863,2.886092817718114,1.23509533967533
2.7105871123457863,2.886092817718114,-1.2435992684586965
2.7105871123457863,1.23509533967533,-1.2435992684586965
0.7614317892361161,0.9510894276515401,1.23509533967533
0.7614317892361161,0.9510894276515401,-1.2435992684586965
0.7614317892361161,0.9510894276515401,-1.9585591064878805
0.7614317892361161,0.9510894276515401,-2.712357798890987
0.7614317892361161,0.9510894276515401,2.886092817718114
0.7614317892361161,-1.9585591064878805,1.23509533967533
0.7614317892361161,-1.9585591064878805,-1.2435992684586965
0.7614317892361161,-1.9585591064878805,-2.712357798890987
0.7614317892361161,-1.9585591064878805,2.886092817718114
0.7614317892361161,-2.712357798890987,1.23509533967533
0.7614317892361161,-2.712357798890987,-1.2435992684586965
0.7614317892361161,-2.712357798890987,2.886092817718114
0.7614317892361161,2.886092817718114,1.23509533967533
0.7614317892361161,2.886092817718114,-1.2435992684586965
0.7614317892361161,1.23509533967533,-1.2435992684586965
0.9510894276515401,1.23509533967533,-1.2435992684586965
0.9510894276515401,-1.9585591064878805,1.23509533967533
0.9510894276515401,-1.9585591064878805,-1.2435992684586965
0.9510894276515401,-1.9585591064878805,-2.712357798890987
0.9510894276515401,-1.9585591064878805,2.886092817718114
0.9510894276515401,-2.712357798890987,1.23509533967533
0.9510894276515401,-2.712357798890987,-1.2435992684586965
0.9510894276515401,-2.712357798890987,2.886092817718114
0.9510894276515401,2.886092817718114,1.23509533967533
0.9510894276515401,2.886092817718114,-1.2435992684586965
-1.9585591064878805,1.23509533967533,-1.2435992684586965
-1.9585591064878805,-2.712357798890987,1.23509533967533
-1.9585591064878805,-2.712357798890987,-1.2435992684586965
-1.9585591064878805,-2.712357798890987,2.886092817718114
-1.9585591064878805,2.886092817718114,1.23509533967533
-1.9585591064878805,2.886092817718114,-1.2435992684586965
-2.712357798890987,1.23509533967533,-1.2435992684586965
-2.712357798890987,2.886092817718114,1.23509533967533
-2.712357798890987,2.886092817718114,-1.2435992684586965
2.886092817718114,1.23509533967533,-1.2435992684586965
