0,1,2
-1.7855589200350073,2.603945199621201,2.0687767421879157
-1.7855589200350073,2.603945199621201,0.3866163833324423
-1.7855589200350073,2.603945199621201,-0.07279282686848904
-1.7855589200350073,2.603945199621201,1.6071036585881928
-1.7855589200350073,2.603945199621201,0.9892603560818405
-1.7855589200350073,2.603945199621201,-1.771894672656918
-1.7855589200350073,2.603945199621201,-1.3863136446320603
-1.7855589200350073,2.603945199621201,0.2512191270796305
-1.7855589200350073,2.0687767421879157,0.3866163833324423
-1.7855589200350073,2.0687767421879157,-0.07279282686848904
-1.7855589200350073,2.0687767421879157,1.6071036585881928
-1.7855589200350073,2.0687767421879157,0.9892603560818405
-1.7855589200350073,2.0687767421879157,-1.771894672656918
-1.7855589200350073,2.0687767421879157,-1.3863136446320603
-1.7855589200350073,2.0687767421879157,0.2512191270796305
-1.7855589200350073,0.3866163833324423,-0.07279282686848904
-1.7855589200350073,0.3866163833324423,1.6071036585881928
-1.7855589200350073,0.3866163833324423,0.9892603560818405
-1.7855589200350073,0.3866163833324423,-1.771894672656918
-1.7855589200350073,0.3866163833324423,-1.3863136446320603
-1.7855589200350073,0.3866163833324423,0.2512191270796305
-1.7855589200350073,-0.07279282686848904,-1.3863136446320603
-1.7855589200350073,-0.07279282686848904,0.2512191270796305
-1.7855589200350073,-0.07279282686848904,1.6071036585881928
-1.7855589200350073,-0.07279282686848904,0.9892603560818405
-1.7855589200350073,-0.07279282686848904,-1.771894672656918
-1.7855589200350073,1.6071036585881928,-1.3863136446320603
-1.7855589200350073,1.6071036585881928,0.2512191270796305
-1.7855589200350073,1.6071036585881928,0.9892603560818405
-1.7855589200350073,1.6071036585881928,-1.771894672656918
-1.7855589200350073,0.9892603560818405,-1.3863136446320603
-1.7855589200350073,0.9892603560818405,0.2512191270796305
-1.7855589200350073,0.9892603560818405,-1.771894672656918
-1.7855589200350073,-1.771894672656918,-1.3863136446320603
-1.7855589200350073,-1.771894672656918,0.2512191270796305
-1.7855589200350073,-1.3863136446320603,0.2512191270796305
2.603945199621201,2.0687767421879157,0.3866163833324423
2.603945199621201,2.0687767421879157,-0.07279282686848904
2.603945199621201,2.0687767421879157,1.6071036585881928
2.603945199621201,2.0687767421879157,0.9892603560818405
2.603945199621201,2.0687767421879157,-1.771894672656918
2.603945199621201,2.0687767421879157,-1.3863136446320603
2.603945199621201,2.0687767421879157,0.2512191270796305
2.603945199621201,0.3866163833324423,-0.07279282686848904
2.603945199621201,0.3866163833324423,1.6071036585881928
2.603945199621201,0.3866163833324423,0.9892603560818405
2.603945199621201,0.3866163833324423,-1.771894672656918
2.603945199621201,0.3866163833324423,-1.3863136446320603
2.603945199621201,0.3866163833324423,0.2512191270796305
2.603945199621201,-0.07279282686848904,-1.3863136446320603
2.603945199621201,-0.07279282686848904,0.2512191270796305
2.603945199621201,-0.07279282686848904,1.6071036585881928
2.603945199621201,-0.07279282686848904,0.9892603560818405
2.603945199621201,-0.07279282686848904,-1.771894672656918
2.603945199621201,1.6071036585881928,-1.3863136446320603
2.603945199621201,1.6071036585881928,0.2512191270796305
2.603945199621201,1.6071036585881928,0.9892603560818405
2.603945199621201,1.6071036585881928,-1.771894672656918
2.603945199621201,0.9892603560818405,-1.3863136446320603
2.603945199621201,0.9892603560818405,0.2512191270796305
2.603945199621201,0.9892603560818405,-1.771894672656918
2.603945199621201,-1.771894672656918,-1.3863136446320603
2.603945199621201,-1.771894672656918,0.2512191270796305
2.603945199621201,-1.3863136446320603,0.2512191270796305
2.0687767421879157,0.3866163833324423,-0.07279282686848904
2.0687767421879157,0.3866163833324423,1.6071036585881928
2.0687767421879157,0.3866163833324423,0.9892603560818405
2.0687767421879157,0.3866163833324423,-1.771894672656918
2.0687767421879157,0.3866163833324423,-1.3863136446320603
2.0687767421879157,0.3866163833324423,0.2512191270796305
2.0687767421879157,-0.07279282686848904,-1.3863136446320603
2.0687767421879157,-0.07279282686848904,0.2512191270796305
2.0687767421879157,-0.07279282686848904,1.6071036585881928
2.0687767421879157,-0.07279282686848904,0.9892603560818405
2.0687767421879157,-0.07279282686848904,-1.771894672656918
2.0687767421879157,1.6071036585881928,-1.3863136446320603
2.0687767421879157,1.6071036585881928,0.2512191270796305
2.0687767421879157,1.6071036585881928,0.9892603560818405
2.0687767421879157,1.6071036585881928,-1.771894672656918
2.0687767421879157,0.9892603560818405,-1.3863136446320603
2.0687767421879157,0.9892603560818405,0.2512191270796305
2.0687767421879157,0.9892603560818405,-1.771894672656918
2.0687767421879157,-1.771894672656918,-1.3863136446320603
2.0687767421879157,-1.771894672656918,0.2512191270796305
2.0687767421879157,-1.3863136446320603,0.2512191270796305
0.3866163833324423,-0.07279282686848904,-1.3863136446320603
0.3866163833324423,-0.07279282686848904,0.2512191270796305
0.3866163833324423,-0.07279282686848904,1.6071036585881928
0.3866163833324423,-0.07279282686848904,0.9892603560818405
0.3866163833324423,-0.07279282686848904,-1.771894672656918
0.3866163833324423,1.6071036585881928,-1.3863136446320603
0.3866163833324423,1.6071036585881928,0.2512191270796305
0.3866163833324423,1.6071036585881928,0.9892603560818405
0.3866163833324423,1.6071036585881928,-1.771894672656918
0.3866163833324423,0.9892603560818405,-1.3863136446320603
0.3866163833324423,0.9892603560818405,0.2512191270796305
0.3866163833324423,0.9892603560818405,-1.771894672656918
0.3866163833324423,-1.771894672656918,-1.3863136446320603
0.3866163833324423,-1.771894672656918,0.2512191270796305
0.3866163833324423,-1.3863136446320603,0.2512191270796305
-0.07279282686848904,-1.3863136446320603,0.2512191270796305
-0.07279282686848904,1.6071036585881928,-1.3863136446320603
-0.07279282686848904,1.6071036585881928,0.2512191270796305
-0.07279282686848904,1.6071036585881928,0.9892603560818405
-0.07279282686848904,1.6071036585881928,-1.771894672656918
-0.07279282686848904,0.9892603560818405,-1.3863136446320603
-0.07279282686848904,0.9892603560818405,0.2512191270796305
-0.07279282686848904,0.9892603560818405,-1.771894672656918
-0.07279282686848904,-1.771894672656918,-1.3863136446320603
-0.07279282686848904,-1.771894672656918,0.2512191270796305
1.6071036585881928,-1.3863136446320603,0.2512191270796305
1.6071036585881928,0.9892603560818405,-1.3863136446320603
1.6071036585881928,0.9892603560818405,0.2512191270796305
1.6071036585881928,0.9892603560818405,-1.771894672656918
1.6071036585881928,-1.771894672656918,-1.3863136446320603
1.6071036585881928,-1.771894672656918,0.2512191270796305
0.9892603560818405,-1.3863136446320603,0.2512191270796305
0.9892603560818405,-1.771894672656918,-1.3863136446320603
0.9892603560818405,-1.771894672656918,0.2512191270796305
-1.771894672656918,-1.3863136446320603,0.2512191270796305
