0,1,2
0.7792670544801006,1.3697059357689658,0.3703706779737926
0.7792670544801006,1.3697059357689658,1.5223490329409142
0.7792670544801006,1.3697059357689658,2.60942703252942
0.7792670544801006,1.3697059357689658,-1.3625708198714996
0.7792670544801006,1.3697059357689658,-1.0939181720239306
0.7792670544801006,1.3697059357689658,-0.9053291036380248
0.7792670544801006,1.3697059357689658,0.9727345615325145
0.7792670544801006,1.3697059357689658,0.28990424152743255
0.7792670544801006,0.3703706779737926,1.5223490329409142
0.7792670544801006,0.3703706779737926,2.60942703252942
0.7792670544801006,0.3703706779737926,-1.3625708198714996
0.7792670544801006,0.3703706779737926,-1.0939181720239306
0.7792670544801006,0.3703706779737926,-0.9053291036380248
0.7792670544801006,0.3703706779737926,0.9727345615325145
0.7792670544801006,0.3703706779737926,0.28990424152743255
0.7792670544801006,1.5223490329409142,2.60942703252942
0.7792670544801006,1.5223490329409142,-1.3625708198714996
0.7792670544801006,1.5223490329409142,-1.0939181720239306
0.7792670544801006,1.5223490329409142,-0.9053291036380248
0.7792670544801006,1.5223490329409142,0.9727345615325145
0.7792670544801006,1.5223490329409142,0.28990424152743255
0.7792670544801006,2.60942703252942,0.9727345615325145
0.7792670544801006,2.60942703252942,0.28990424152743255
0.7792670544801006,2.60942703252942,-1.3625708198714996
0.7792670544801006,2.60942703252942,-1.0939181720239306
0.7792670544801006,2.60942703252942,-0.9053291036380248
0.7792670544801006,-1.3625708198714996,0.9727345615325145
0.7792670544801006,-1.3625708198714996,0.28990424152743255
0.7792670544801006,-1.3625708198714996,-1.0939181720239306
0.7792670544801006,-1.3625708198714996,-0.9053291036380248
0.7792670544801006,-1.0939181720239306,0.9727345615325145
0.7792670544801006,-1.0939181720239306,0.28990424152743255
0.7792670544801006,-1.0939181720239306,-0.9053291036380248
0.7792670544801006,-0.9053291036380248,0.9727345615325145
0.7792670544801006,-0.9053291036380248,0.28990424152743255
0.7792670544801006,0.9727345615325145,0.28990424152743255
1.3697059357689658,0.3703706779737926,1.5223490329409142
1.3697059357689658,0.3703706779737926,2.60942703252942
1.3697059357689658,0.3703706779737926,-1.3625708198714996
1.3697059357689658,0.3703706779737926,-1.0939181720239306
1.3697059357689658,0.3703706779737926,-0.9053291036380248
1.3697059357689658,0.3703706779737926,0.9727345615325145
1.3697059357689658,0.3703706779737926,0.28990424152743255
1.3697059357689658,1.5223490329409142,2.60942703252942
1.3697059357689658,1.5223490329409142,-1.3625708198714996
1.3697059357689658,1.5223490329409142,-1.0939181720239306
1.3697059357689658,1.5223490329409142,-0.9053291036380248
1.3697059357689658,1.5223490329409142,0.9727345615325145
1.3697059357689658,1.5223490329409142,0.28990424152743255
1.3697059357689658,2.60942703252942,0.9727345615325145
1.3697059357689658,2.60942703252942,0.28990424152743255
1.3697059357689658,2.60942703252942,-1.3625708198714996
1.3697059357689658,2.60942703252942,-1.0939181720239306
1.3697059357689658,2.60942703252942,-0.9053291036380248
1.3697059357689658,-1.3625708198714996,0.9727345615325145
1.3697059357689658,-1.3625708198714996,0.28990424152743255
1.3697059357689658,-1.3625708198714996,-1.0939181720239306
1.3697059357689658,-1.3625708198714996,-0.9053291036380248
1.3697059357689658,-1.0939181720239306,0.9727345615325145
1.3697059357689658,-1.0939181720239306,0.28990424152743255
1.3697059357689658,-1.0939181720239306,-0.9053291036380248
1.3697059357689658,-0.9053291036380248,0.9727345615325145
1.3697059357689658,-0.9053291036380248,0.28990424152743255
1.3697059357689658,0.9727345615325145,0.28990424152743255
0.3703706779737926,1.5223490329409142,2.60942703252942
0.3703706779737926,1.5223490329409142,-1.3625708198714996
0.3703706779737926,1.5223490329409142,-1.0939181720239306
0.3703706779737926,1.5223490329409142,-0.9053291036380248
0.3703706779737926,1.5223490329409142,0.9727345615325145
0.3703706779737926,1.5223490329409142,0.28990424152743255
0.3703706779737926,2.60942703252942,0.9727345615325145
0.3703706779737926,2.60942703252942,0.28990424152743255
0.3703706779737926,2.60942703252942,-1.3625708198714996
0.3703706779737926,2.60942703252942,-1.0939181720239306
0.3703706779737926,2.60942703252942,-0.9053291036380248
0.3703706779737926,-1.3625708198714996,0.9727345615325145
0.3703706779737926,-1.3625708198714996,0.28990424152743255
0.3703706779737926,-1.3625708198714996,-1.0939181720239306
0.3703706779737926,-1.3625708198714996,-0.9053291036380248
0.3703706779737926,-1.0939181720239306,0.9727345615325145
0.3703706779737926,-1.0939181720239306,0.28990424152743255
0.3703706779737926,-1.0939181720239306,-0.9053291036380248
0.3703706779737926,-0.9053291036380248,0.9727345615325145
0.3703706779737926,-0.9053291036380248,0.28990424152743255
0.3703706779737926,0.9727345615325145,0.28990424152743255
1.5223490329409142,2.60942703252942,0.9727345615325145
1.5223490329409142,2.60942703252942,0.28990424152743255
1.5223490329409142,2.60942703252942,-1.3625708198714996
1.5223490329409142,2.60942703252942,-1.0939181720239306
1.5223490329409142,2.60942703252942,-0.9053291036380248
1.5223490329409142,-1.3625708198714996,0.9727345615325145
1.5223490329409142,-1.3625708198714996,0.28990424152743255
1.5223490329409142,-1.3625708198714996,-1.0939181720239306
1.5223490329409142,-1.3625708198714996,-0.9053291036380248
1.5223490329409142,-1.0939181720239306,0.9727345615325145
1.5223490329409142,-1.0939181720239306,0.28990424152743255
1.5223490329409142,-1.0939181720239306,-0.9053291036380248
1.5223490329409142,-0.9053291036380248,0.9727345615325145
1.5223490329409142,-0.9053291036380248,0.28990424152743255
1.5223490329409142,0.9727345615325145,0.28990424152743255
2.60942703252942,0.9727345615325145,0.28990424152743255
2.60942703252942,-1.3625708198714996,0.9727345615325145
2.60942703252942,-1.3625708198714996,0.28990424152743255
2.60942703252942,-1.3625708198714996,-1.0939181720239306
2.60942703252942,-1.3625708198714996,-0.9053291036380248
2.60942703252942,-1.0939181720239306,0.9727345615325145
2.60942703252942,-1.0939181720239306,0.28990424152743255
2.60942703252942,-1.0939181720239306,-0.9053291036380248
2.60942703252942,-0.9053291036380248,0.9727345615325145
2.60942703252942,-0.9053291036380248,0.28990424152743255
-1.3625708198714996,0.9727345615325145,0.28990424152743255
-1.3625708198714996,-1.0939181720239306,0.9727345615325145
-1.3625708198714996,-1.0939181720239306,0.28990424152743255
-1.3625708198714996,-1.0939181720239306,-0.9053291036380248
-1.3625708198714996,-0.9053291036380248,0.9727345615325145
-1.3625708198714996,-0.9053291036380248,0.28990424152743255
-1.0939181720239306,0.9727345615325145,0.28990424152743255
-1.0939181720239306,-0.9053291036380248,0.9727345615325145
-1.0939181720239306,-0.9053291036380248,0.28990424152743255
-0.9053291036380248,0.9727345615325145,0.28990424152743255
