0,1,2
2.556064087803644,0.9578502117785658,3.6775550700944533
2.556064087803644,0.9578502117785658,-1.220108135838734
2.556064087803644,0.9578502117785658,2.891982456348445
2.556064087803644,0.9578502117785658,1.2071428239515465
2.556064087803644,0.9578502117785658,1.8651454851388773
2.556064087803644,0.9578502117785658,-1.0813142201876547
2.556064087803644,0.9578502117785658,1.1687004435903503
2.556064087803644,0.9578502117785658,-0.9256778601617717
2.556064087803644,3.6775550700944533,-1.220108135838734
2.556064087803644,3.6775550700944533,2.891982456348445
2.556064087803644,3.6775550700944533,1.2071428239515465
2.556064087803644,3.6775550700944533,1.8651454851388773
2.556064087803644,3.6775550700944533,-1.0813142201876547
2.556064087803644,3.6775550700944533,1.1687004435903503
2.556064087803644,3.6775550700944533,-0.9256778601617717
2.556064087803644,-1.220108135838734,2.891982456348445
2.556064087803644,-1.220108135838734,1.2071428239515465
2.556064087803644,-1.220108135838734,1.8651454851388773
2.556064087803644,-1.220108135838734,-1.0813142201876547
2.556064087803644,-1.220108135838734,1.1687004435903503
2.556064087803644,-1.220108135838734,-0.9256778601617717
2.556064087803644,2.891982456348445,1.1687004435903503
2.556064087803644,2.891982456348445,-0.9256778601617717
2.556064087803644,2.891982456348445,1.2071428239515465
2.556064087803644,2.891982456348445,1.8651454851388773
2.556064087803644,2.891982456348445,-1.0813142201876547
2.556064087803644,1.2071428239515465,1.1687004435903503
2.556064087803644,1.2071428239515465,-0.9256778601617717
2.556064087803644,1.2071428239515465,1.8651454851388773
2.556064087803644,1.2071428239515465,-1.0813142201876547
2.556064087803644,1.8651454851388773,1.1687004435903503
2.556064087803644,1.8651454851388773,-0.9256778601617717
2.556064087803644,1.8651454851388773,-1.0813142201876547
2.556064087803644,-1.0813142201876547,1.1687004435903503
2.556064087803644,-1.0813142201876547,-0.9256778601617717
2.556064087803644,1.1687004435903503,-0.9256778601617717
0.9578502117785658,3.6775550700944533,-1.220108135838734
0.9578502117785658,3.6775550700944533,2.891982456348445
0.9578502117785658,3.6775550700944533,1.2071428239515465
0.9578502117785658,3.6775550700944533,1.8651454851388773
0.9578502117785658,3.6775550700944533,-1.0813142201876547
0.9578502117785658,3.6775550700944533,1.1687004435903503
0.9578502117785658,3.6775550700944533,-0.9256778601617717
0.9578502117785658,-1.220108135838734,2.891982456348445
0.9578502117785658,-1.220108135838734,1.2071428239515465
0.9578502117785658,-1.220108135838734,1.8651454851388773
0.9578502117785658,-1.220108135838734,-1.0813142201876547
0.9578502117785658,-1.220108135838734,1.1687004435903503
0.9578502117785658,-1.220108135838734,-0.9256778601617717
0.9578502117785658,2.891982456348445,1.1687004435903503
0.9578502117785658,2.891982456348445,-0.9256778601617717
0.9578502117785658,2.891982456348445,1.2071428239515465
0.9578502117785658,2.891982456348445,1.8651454851388773
0.9578502117785658,2.891982456348445,-1.0813142201876547
0.9578502117785658,1.2071428239515465,1.1687004435903503
0.9578502117785658,1.2071428239515465,-0.9256778601617717
0.9578502117785658,1.2071428239515465,1.8651454851388773
0.9578502117785658,1.2071428239515465,-1.0813142201876547
0.9578502117785658,1.8651454851388773,1.1687004435903503
0.9578502117785658,1.8651454851388773,-0.9256778601617717
0.9578502117785658,1.8651454851388773,-1.0813142201876547
0.9578502117785658,-1.0813142201876547,1.1687004435903503
0.9578502117785658,-1.0813142201876547,-0.9256778601617717
0.9578502117785658,1.1687004435903503,-0.9256778601617717
3.6775550700944533,-1.220108135838734,2.891982456348445
3.6775550700944533,-1.220108135838734,1.2071428239515465
3.6775550700944533,-1.220108135838734,1.8651454851388773
3.6775550700944533,-1.220108135838734,-1.0813142201876547
3.6775550700944533,-1.220108135838734,1.1687004435903503
3.6775550700944533,-1.220108135838734,-0.9256778601617717
3.6775550700944533,2.891982456348445,1.1687004435903503
3.6775550700944533,2.891982456348445,-0.9256778601617717
3.6775550700944533,2.891982456348445,1.2071428239515465
3.6775550700944533,2.891982456348445,1.8651454851388773
3.6775550700944533,2.891982456348445,-1.0813142201876547
3.6775550700944533,1.2071428239515465,1.1687004435903503
3.6775550700944533,1.2071428239515465,-0.9256778601617717
3.6775550700944533,1.2071428239515465,1.8651454851388773
3.6775550700944533,1.2071428239515465,-1.0813142201876547
3.6775550700944533,1.8651454851388773,1.1687004435903503
3.6775550700944533,1.8651454851388773,-0.9256778601617717
3.6775550700944533,1.8651454851388773,-1.0813142201876547
3.6775550700944533,-1.0813142201876547,1.1687004435903503
3.6775550700944533,-1.0813142201876547,-0.9256778601617717
3.6775550700944533,1.1687004435903503,-0.9256778601617717
-1.220108135838734,2.891982456348445,1.1687004435903503
-1.220108135838734,2.891982456348445,-0.9256778601617717
-1.220108135838734,2.891982456348445,1.2071428239515465
-1.220108135838734,2.891982456348445,1.8651454851388773
-1.220108135838734,2.891982456348445,-1.0813142201876547
-1.220108135838734,1.2071428239515465,1.1687004435903503
-1.220108135838734,1.2071428239515465,-0.9256778601617717
-1.220108135838734,1.2071428239515465,1.8651454851388773
-1.220108135838734,1.2071428239515465,-1.0813142201876547
-1.220108135838734,1.8651454851388773,1.1687004435903503
-1.220108135838734,1.8651454851388773,-0.9256778601617717
-1.220108135838734,1.8651454851388773,-1.0813142201876547
-1.220108135838734,-1.0813142201876547,1.1687004435903503
-1.220108135838734,-1.0813142201876547,-0.9256778601617717
-1.220108135838734,1.1687004435903503,-0.9256778601617717
2.891982456348445,1.1687004435903503,-0.9256778601617717
2.891982456348445,1.2071428239515465,1.1687004435903503
2.891982456348445,1.2071428239515465,-0.9256778601617717
2.891982456348445,1.2071428239515465,1.8651454851388773
2.891982456348445,1.2071428239515465,-1.0813142201876547
2.891982456348445,1.8651454851388773,1.1687004435903503
2.891982456348445,1.8651454851388773,-0.9256778601617717
2.891982456348445,1.8651454851388773,-1.0813142201876547
2.891982456348445,-1.0813142201876547,1.1687004435903503
2.891982456348445,-1.0813142201876547,-0.9256778601617717
1.2071428239515465,1.1687004435903503,-0.9256778601617717
1.2071428239515465,1.8651454851388773,1.1687004435903503
1.2071428239515465,1.8651454851388773,-0.9256778601617717
1.2071428239515465,1.8651454851388773,-1.0813142201876547
1.2071428239515465,-1.0813142201876547,1.1687004435903503
1.2071428239515465,-1.0813142201876547,-0.9256778601617717
1.8651454851388773,1.1687004435903503,-0.9256778601617717
1.8651454851388773,-1.0813142201876547,1.1687004435903503
1.8651454851388773,-1.0813142201876547,-0.9256778601617717
-1.0813142201876547,1.1687004435903503,-0.9256778601617717
