0,1,2
-1.183839092744738,-1.1487746225482678,2.4572237121910865
-1.183839092744738,-1.1487746225482678,-1.3593577179278165
-1.183839092744738,-1.1487746225482678,-3.5861049777576643
-1.183839092744738,-1.1487746225482678,2.1700938905782374
-1.183839092744738,-1.1487746225482678,3.290855387702057
-1.183839092744738,-1.1487746225482678,-1.570938028700893
-1.183839092744738,-1.1487746225482678,3.877043483387338
-1.183839092744738,-1.1487746225482678,-1.3749022342000008
-1.183839092744738,2.4572237121910865,-1.3593577179278165
-1.183839092744738,2.4572237121910865,-3.5861049777576643
-1.183839092744738,2.4572237121910865,2.1700938905782374
-1.183839092744738,2.4572237121910865,3.290855387702057
-1.183839092744738,2.4572237121910865,-1.570938028700893
-1.183839092744738,2.4572237121910865,3.877043483387338
-1.183839092744738,2.4572237121910865,-1.3749022342000008
-1.183839092744738,-1.3593577179278165,-3.5861049777576643
-1.183839092744738,-1.3593577179278165,2.1700938905782374
-1.183839092744738,-1.3593577179278165,3.290855387702057
-1.183839092744738,-1.3593577179278165,-1.570938028700893
-1.183839092744738,-1.3593577179278165,3.877043483387338
-1.183839092744738,-1.3593577179278165,-1.3749022342000008
-1.183839092744738,-3.5861049777576643,3.877043483387338
-1.183839092744738,-3.5861049777576643,-1.3749022342000008
-1.183839092744738,-3.5861049777576643,2.1700938905782374
-1.183839092744738,-3.5861049777576643,3.290855387702057
-1.183839092744738,-3.5861049777576643,-1.570938028700893
-1.183839092744738,2.1700938905782374,3.877043483387338
-1.183839092744738,2.1700938905782374,-1.3749022342000008
-1.183839092744738,2.1700938905782374,3.290855387702057
-1.183839092744738,2.1700938905782374,-1.570938028700893
-1.183839092744738,3.290855387702057,3.877043483387338
-1.183839092744738,3.290855387702057,-1.3749022342000008
-1.183839092744738,3.290855387702057,-1.570938028700893
-1.183839092744738,-1.570938028700893,3.877043483387338
-1.183839092744738,-1.570938028700893,-1.3749022342000008
-1.183839092744738,3.877043483387338,-1.3749022342000008
-1.1487746225482678,2.4572237121910865,-1.3593577179278165
-1.1487746225482678,2.4572237121910865,-3.5861049777576643
-1.1487746225482678,2.4572237121910865,2.1700938905782374
-1.1487746225482678,2.4572237121910865,3.290855387702057
-1.1487746225482678,2.4572237121910865,-1.570938028700893
-1.1487746225482678,2.4572237121910865,3.877043483387338
-1.1487746225482678,2.4572237121910865,-1.3749022342000008
-1.1487746225482678,-1.3593577179278165,-3.5861049777576643
-1.1487746225482678,-1.3593577179278165,2.1700938905782374
-1.1487746225482678,-1.3593577179278165,3.290855387702057
-1.1487746225482678,-1.3593577179278165,-1.570938028700893
-1.1487746225482678,-1.3593577179278165,3.877043483387338
-1.1487746225482678,-1.3593577179278165,-1.3749022342000008
-1.1487746225482678,-3.5861049777576643,3.877043483387338
-1.1487746225482678,-3.5861049777576643,-1.3749022342000008
-1.1487746225482678,-3.5861049777576643,2.1700938905782374
-1.1487746225482678,-3.5861049777576643,3.290855387702057
-1.1487746225482678,-3.5861049777576643,-1.570938028700893
-1.1487746225482678,2.1700938905782374,3.877043483387338
-1.1487746225482678,2.1700938905782374,-1.3749022342000008
-1.1487746225482678,2.1700938905782374,3.290855387702057
-1.1487746225482678,2.1700938905782374,-1.570938028700893
-1.1487746225482678,3.290855387702057,3.877043483387338
-1.1487746225482678,3.290855387702057,-1.3749022342000008
-1.1487746225482678,3.290855387702057,-1.570938028700893
-1.1487746225482678,-1.570938028700893,3.877043483387338
-1.1487746225482678,-1.570938028700893,-1.3749022342000008
-1.1487746225482678,3.877043483387338,-1.3749022342000008
2.4572237121910865,-1.3593577179278165,-3.5861049777576643
2.4572237121910865,-1.3593577179278165,2.1700938905782374
2.4572237121910865,-1.3593577179278165,3.290855387702057
2.4572237121910865,-1.3593577179278165,-1.570938028700893
2.4572237121910865,-1.3593577179278165,3.877043483387338
2.4572237121910865,-1.3593577179278165,-1.3749022342000008
2.4572237121910865,-3.5861049777576643,3.877043483387338
2.4572237121910865,-3.5861049777576643,-1.3749022342000008
2.4572237121910865,-3.5861049777576643,2.1700938905782374
2.4572237121910865,-3.5861049777576643,3.290855387702057
2.4572237121910865,-3.5861049777576643,-1.570938028700893
2.4572237121910865,2.1700938905782374,3.877043483387338
2.4572237121910865,2.1700938905782374,-1.3749022342000008
2.4572237121910865,2.1700938905782374,3.290855387702057
2.4572237121910865,2.1700938905782374,-1.570938028700893
2.4572237121910865,3.290855387702057,3.877043483387338
2.4572237121910865,3.290855387702057,-1.3749022342000008
2.4572237121910865,3.290855387702057,-1.570938028700893
2.4572237121910865,-1.570938028700893,3.877043483387338
2.4572237121910865,-1.570938028700893,-1.3749022342000008
2.4572237121910865,3.877043483387338,-1.3749022342000008
-1.3593577179278165,-3.5861049777576643,3.877043483387338
-1.3593577179278165,-3.5861049777576643,-1.3749022342000008
-1.3593577179278165,-3.5861049777576643,2.1700938905782374
-1.3593577179278165,-3.5861049777576643,3.290855387702057
-1.3593577179278165,-3.5861049777576643,-1.570938028700893
-1.3593577179278165,2.1700938905782374,3.877043483387338
-1.3593577179278165,2.1700938905782374,-1.3749022342000008
-1.3593577179278165,2.1700938905782374,3.290855387702057
-1.3593577179278165,2.1700938905782374,-1.570938028700893
-1.3593577179278165,3.290855387702057,3.877043483387338
-1.3593577179278165,3.290855387702057,-1.3749022342000008
-1.3593577179278165,3.290855387702057,-1.570938028700893
-1.3593577179278165,-1.570938028700893,3.877043483387338
-1.3593577179278165,-1.570938028700893,-1.3749022342000008
-1.3593577179278165,3.877043483387338,-1.3749022342000008
-3.5861049777576643,3.877043483387338,-1.3749022342000008
-3.5861049777576643,2.1700938905782374,3.877043483387338
-3.5861049777576643,2.1700938905782374,-1.3749022342000008
-3.5861049777576643,2.1700938905782374,3.290855387702057
-3.5861049777576643,2.1700938905782374,-1.570938028700893
-3.5861049777576643,3.290855387702057,3.877043483387338
-3.5861049777576643,3.290855387702057,-1.3749022342000008
-3.5861049777576643,3.290855387702057,-1.570938028700893
-3.5861049777576643,-1.570938028700893,3.877043483387338
-3.5861049777576643,-1.570938028700893,-1.3749022342000008
2.1700938905782374,3.877043483387338,-1.3749022342000008
2.1700938905782374,3.290855387702057,3.877043483387338
2.1700938905782374,3.290855387702057,-1.3749022342000008
2.1700938905782374,3.290855387702057,-1.570938028700893
2.1700938905782374,-1.570938028700893,3.877043483387338
2.1700938905782374,-1.570938028700893,-1.3749022342000008
3.290855387702057,3.877043483387338,-1.3749022342000008
3.290855387702057,-1.570938028700893,3.877043483387338
3.290855387702057,-1.570938028700893,-1.3749022342000008
-1.570938028700893,3.877043483387338,-1.3749022342000008
