0,1,2
3.332812939371902,-1.3617821857800412,2.3221585749318217
3.332812939371902,-1.3617821857800412,0.22552233565818086
3.332812939371902,-1.3617821857800412,-4.349532298688906
3.332812939371902,-1.3617821857800412,-1.73462815178624
3.332812939371902,-1.3617821857800412,-0.5742165724280188
3.332812939371902,-1.3617821857800412,-0.7013382916903194
3.332812939371902,-1.3617821857800412,1.1715220787913072
3.332812939371902,-1.3617821857800412,2.064655616206339
3.332812939371902,2.3221585749318217,0.22552233565818086
3.332812939371902,2.3221585749318217,-4.349532298688906
3.332812939371902,2.3221585749318217,-1.73462815178624
3.332812939371902,2.3221585749318217,-0.5742165724280188
3.332812939371902,2.3221585749318217,-0.7013382916903194
3.332812939371902,2.3221585749318217,1.1715220787913072
3.332812939371902,2.3221585749318217,2.064655616206339
3.332812939371902,0.22552233565818086,-4.349532298688906
3.332812939371902,0.22552233565818086,-1.73462815178624
3.332812939371902,0.22552233565818086,-0.5742165724280188
3.332812939371902,0.22552233565818086,-0.7013382916903194
3.332812939371902,0.22552233565818086,1.1715220787913072
3.332812939371902,0.22552233565818086,2.064655616206339
3.332812939371902,-4.349532298688906,1.1715220787913072
3.332812939371902,-4.349532298688906,2.064655616206339
3.332812939371902,-4.349532298688906,-1.73462815178624
3.332812939371902,-4.349532298688906,-0.5742165724280188
3.332812939371902,-4.349532298688906,-0.7013382916903194
3.332812939371902,-1.73462815178624,1.1715220787913072
3.332812939371902,-1.73462815178624,2.064655616206339
3.332812939371902,-1.73462815178624,-0.5742165724280188
3.332812939371902,-1.73462815178624,-0.7013382916903194
3.332812939371902,-0.5742165724280188,1.1715220787913072
3.332812939371902,-0.5742165724280188,2.064655616206339
3.332812939371902,-0.5742165724280188,-0.7013382916903194
3.332812939371902,-0.7013382916903194,1.1715220787913072
3.332812939371902,-0.7013382916903194,2.064655616206339
3.332812939371902,1.1715220787913072,2.064655616206339
-1.3617821857800412,2.3221585749318217,0.22552233565818086
-1.3617821857800412,2.3221585749318217,-4.349532298688906
-1.3617821857800412,2.3221585749318217,-1.73462815178624
-1.3617821857800412,2.3221585749318217,-0.5742165724280188
-1.3617821857800412,2.3221585749318217,-0.7013382916903194
-1.3617821857800412,2.3221585749318217,1.1715220787913072
-1.3617821857800412,2.3221585749318217,2.064655616206339
-1.3617821857800412,0.22552233565818086,-4.349532298688906
-1.3617821857800412,0.22552233565818086,-1.73462815178624
-1.3617821857800412,0.22552233565818086,-0.5742165724280188
-1.3617821857800412,0.22552233565818086,-0.7013382916903194
-1.3617821857800412,0.22552233565818086,1.1715220787913072
-1.3617821857800412,0.22552233565818086,2.064655616206339
-1.3617821857800412,-4.349532298688906,1.1715220787913072
-1.3617821857800412,-4.349532298688906,2.064655616206339
-1.3617821857800412,-4.349532298688906,-1.73462815178624
-1.3617821857800412,-4.349532298688906,-0.5742165724280188
-1.3617821857800412,-4.349532298688906,-0.7013382916903194
-1.3617821857800412,-1.73462815178624,1.1715220787913072
-1.3617821857800412,-1.73462815178624,2.064655616206339
-1.3617821857800412,-1.73462815178624,-0.5742165724280188
-1.3617821857800412,-1.73462815178624,-0.7013382916903194
-1.3617821857800412,-0.5742165724280188,1.1715220787913072
-1.3617821857800412,-0.5742165724280188,2.064655616206339
-1.3617821857800412,-0.5742165724280188,-0.7013382916903194
-1.3617821857800412,-0.7013382916903194,1.1715220787913072
-1.3617821857800412,-0.7013382916903194,2.064655616206339
-1.3617821857800412,1.1715220787913072,2.064655616206339
2.3221585749318217,0.22552233565818086,-4.349532298688906
2.3221585749318217,0.22552233565818086,-1.73462815178624
2.3221585749318217,0.22552233565818086,-0.5742165724280188
2.3221585749318217,0.22552233565818086,-0.7013382916903194
2.3221585749318217,0.22552233565818086,1.1715220787913072
2.3221585749318217,0.22552233565818086,2.064655616206339
2.3221585749318217,-4.349532298688906,1.1715220787913072
2.3221585749318217,-4.349532298688906,2.064655616206339
2.3221585749318217,-4.349532298688906,-1.73462815178624
2.3221585749318217,-4.349532298688906,-0.5742165724280188
2.3221585749318217,-4.349532298688906,-0.7013382916903194
2.3221585749318217,-1.73462815178624,1.1715220787913072
2.3221585749318217,-1.73462815178624,2.064655616206339
2.3221585749318217,-1.73462815178624,-0.5742165724280188
2.3221585749318217,-1.73462815178624,-0.7013382916903194
2.3221585749318217,-0.5742165724280188,1.1715220787913072
2.3221585749318217,-0.5742165724280188,2.064655616206339
2.3221585749318217,-0.5742165724280188,-0.7013382916903194
2.3221585749318217,-0.7013382916903194,1.1715220787913072
2.3221585749318217,-0.7013382916903194,2.064655616206339
2.3221585749318217,1.1715220787913072,2.064655616206339
0.22552233565818086,-4.349532298688906,1.1715220787913072
0.22552233565818086,-4.349532298688906,2.064655616206339
0.22552233565818086,-4.349532298688906,-1.73462815178624
0.22552233565818086,-4.349532298688906,-0.5742165724280188
0.22552233565818086,-4.349532298688906,-0.7013382916903194
0.22552233565818086,-1.73462815178624,1.1715220787913072
0.22552233565818086,-1.73462815178624,2.064655616206339
0.22552233565818086,-1.73462815178624,-0.5742165724280188
0.22552233565818086,-1.73462815178624,-0.7013382916903194
0.22552233565818086,-0.5742165724280188,1.1715220787913072
0.22552233565818086,-0.5742165724280188,2.064655616206339
0.22552233565818086,-0.5742165724280188,-0.7013382916903194
0.22552233565818086,-0.7013382916903194,1.1715220787913072
0.22552233565818086,-0.7013382916903194,2.064655616206339
0.22552233565818086,1.1715220787913072,2.064655616206339
-4.349532298688906,1.1715220787913072,2.064655616206339
-4.349532298688906,-1.73462815178624,1.1715220787913072
-4.349532298688906,-1.73462815178624,2.064655616206339
-4.349532298688906,-1.73462815178624,-0.5742165724280188
-4.349532298688906,-1.73462815178624,-0.7013382916903194
-4.349532298688906,-0.5742165724280188,1.1715220787913072
-4.349532298688906,-0.5742165724280188,2.064655616206339
-4.349532298688906,-0.5742165724280188,-0.7013382916903194
-4.349532298688906,-0.7013382916903194,1.1715220787913072
-4.349532298688906,-0.7013382916903194,2.064655616206339
-1.73462815178624,1.1715220787913072,2.064655616206339
-1.73462815178624,-0.5742165724280188,1.1715220787913072
-1.73462815178624,-0.5742165724280188,2.064655616206339
-1.73462815178624,-0.5742165724280188,-0.7013382916903194
-1.73462815178624,-0.7013382916903194,1.1715220787913072
-1.73462815178624,-0.7013382916903194,2.064655616206339
-0.5742165724280188,1.1715220787913072,2.064655616206339
-0.5742165724280188,-0.7013382916903194,1.1715220787913072
-0.5742165724280188,-0.7013382916903194,2.064655616206339
-0.7013382916903194,1.1715220787913072,2.064655616206339
