0,1,2
-2.120166574278487,-1.2189051263089008,2.7999039454063888
-2.120166574278487,-1.2189051263089008,1.9700032414490634
-2.120166574278487,-1.2189051263089008,2.8832662470724135
-2.120166574278487,-1.2189051263089008,1.3132356750232659
-2.120166574278487,-1.2189051263089008,0.5184213668665001
-2.120166574278487,-1.2189051263089008,-0.8399540601235088
-2.120166574278487,-1.2189051263089008,-2.4966282478281543
-2.120166574278487,-1.2189051263089008,1.129717951629244
-2.120166574278487,2.7999039454063888,1.9700032414490634
-2.120166574278487,2.7999039454063888,2.8832662470724135
-2.120166574278487,2.7999039454063888,1.3132356750232659
-2.120166574278487,2.7999039454063888,0.5184213668665001
-2.120166574278487,2.7999039454063888,-0.8399540601235088
-2.120166574278487,2.7999039454063888,-2.4966282478281543
-2.120166574278487,2.7999039454063888,1.129717951629244
-2.120166574278487,1.9700032414490634,2.8832662470724135
-2.120166574278487,1.9700032414490634,1.3132356750232659
-2.120166574278487,1.9700032414490634,0.5184213668665001
-2.120166574278487,1.9700032414490634,-0.8399540601235088
-2.120166574278487,1.9700032414490634,-2.4966282478281543
-2.120166574278487,1.9700032414490634,1.129717951629244
-2.120166574278487,2.8832662470724135,-2.4966282478281543
-2.120166574278487,2.8832662470724135,1.129717951629244
-2.120166574278487,2.8832662470724135,1.3132356750232659
-2.120166574278487,2.8832662470724135,0.5184213668665001
-2.120166574278487,2.8832662470724135,-0.8399540601235088
-2.120166574278487,1.3132356750232659,-2.4966282478281543
-2.120166574278487,1.3132356750232659,1.129717951629244
-2.120166574278487,1.3132356750232659,0.5184213668665001
-2.120166574278487,1.3132356750232659,-0.8399540601235088
-2.120166574278487,0.5184213668665001,-2.4966282478281543
-2.120166574278487,0.5184213668665001,1.129717951629244
-2.120166574278487,0.5184213668665001,-0.8399540601235088
-2.120166574278487,-0.8399540601235088,-2.4966282478281543
-2.120166574278487,-0.8399540601235088,1.129717951629244
-2.120166574278487,-2.4966282478281543,1.129717951629244
-1.2189051263089008,2.7999039454063888,1.9700032414490634
-1.2189051263089008,2.7999039454063888,2.8832662470724135
-1.2189051263089008,2.7999039454063888,1.3132356750232659
-1.2189051263089008,2.7999039454063888,0.5184213668665001
-1.2189051263089008,2.7999039454063888,-0.8399540601235088
-1.2189051263089008,2.7999039454063888,-2.4966282478281543
-1.2189051263089008,2.7999039454063888,1.129717951629244
-1.2189051263089008,1.9700032414490634,2.8832662470724135
-1.2189051263089008,1.9700032414490634,1.3132356750232659
-1.2189051263089008,1.9700032414490634,0.5184213668665001
-1.2189051263089008,1.9700032414490634,-0.8399540601235088
-1.2189051263089008,1.9700032414490634,-2.4966282478281543
-1.2189051263089008,1.9700032414490634,1.129717951629244
-1.2189051263089008,2.8832662470724135,-2.4966282478281543
-1.2189051263089008,2.8832662470724135,1.129717951629244
-1.2189051263089008,2.8832662470724135,1.3132356750232659
-1.2189051263089008,2.8832662470724135,0.5184213668665001
-1.2189051263089008,2.8832662470724135,-0.8399540601235088
-1.2189051263089008,1.3132356750232659,-2.4966282478281543
-1.2189051263089008,1.3132356750232659,1.129717951629244
-1.2189051263089008,1.3132356750232659,0.5184213668665001
-1.2189051263089008,1.3132356750232659,-0.8399540601235088
-1.2189051263089008,0.5184213668665001,-2.4966282478281543
-1.2189051263089008,0.5184213668665001,1.129717951629244
-1.2189051263089008,0.5184213668665001,-0.8399540601235088
-1.2189051263089008,-0.8399540601235088,-2.4966282478281543
-1.2189051263089008,-0.8399540601235088,1.129717951629244
-1.2189051263089008,-2.4966282478281543,1.129717951629244
2.7999039454063888,1.9700032414490634,2.8832662470724135
2.7999039454063888,1.9700032414490634,1.3132356750232659
2.7999039454063888,1.9700032414490634,0.5184213668665001
2.7999039454063888,1.9700032414490634,-0.8399540601235088
2.7999039454063888,1.9700032414490634,-2.4966282478281543
2.7999039454063888,1.9700032414490634,1.129717951629244
2.7999039454063888,2.8832662470724135,-2.4966282478281543
2.7999039454063888,2.8832662470724135,1.129717951629244
2.7999039454063888,2.8832662470724135,1.3132356750232659
2.7999039454063888,2.8832662470724135,0.5184213668665001
2.7999039454063888,2.8832662470724135,-0.8399540601235088
2.7999039454063888,1.3132356750232659,-2.4966282478281543
2.7999039454063888,1.3132356750232659,1.129717951629244
2.7999039454063888,1.3132356750232659,0.5184213668665001
2.7999039454063888,1.3132356750232659,-0.8399540601235088
2.7999039454063888,0.5184213668665001,-2.4966282478281543
2.7999039454063888,0.5184213668665001,1.129717951629244
2.7999039454063888,0.5184213668665001,-0.8399540601235088
2.7999039454063888,-0.8399540601235088,-2.4966282478281543
2.7999039454063888,-0.8399540601235088,1.129717951629244
2.7999039454063888,-2.4966282478281543,1.129717951629244
1.9700032414490634,2.8832662470724135,-2.4966282478281543
1.9700032414490634,2.8832662470724135,1.129717951629244
1.9700032414490634,2.8832662470724135,1.3132356750232659
1.9700032414490634,2.8832662470724135,0.5184213668665001
1.9700032414490634,2.8832662470724135,-0.8399540601235088
1.9700032414490634,1.3132356750232659,-2.4966282478281543
1.9700032414490634,1.3132356750232659,1.129717951629244
1.9700032414490634,1.3132356750232659,0.5184213668665001
1.9700032414490634,1.3132356750232659,-0.8399540601235088
1.9700032414490634,0.5184213668665001,-2.4966282478281543
1.9700032414490634,0.5184213668665001,1.129717951629244
1.9700032414490634,0.5184213668665001,-0.8399540601235088
1.9700032414490634,-0.8399540601235088,-2.4966282478281543
1.9700032414490634,-0.8399540601235088,1.129717951629244
1.9700032414490634,-2.4966282478281543,1.129717951629244
2.8832662470724135,-2.4966282478281543,1.129717951629244
2.8832662470724135,1.3132356750232659,-2.4966282478281543
2.8832662470724135,1.3132356750232659,1.129717951629244
2.8832662470724135,1.3132356750232659,0.5184213668665001
2.8832662470724135,1.3132356750232659,-0.8399540601235088
2.8832662470724135,0.5184213668665001,-2.4966282478281543
2.8832662470724135,0.5184213668665001,1.129717951629244
2.8832662470724135,0.5184213668665001,-0.8399540601235088
2.8832662470724135,-0.8399540601235088,-2.4966282478281543
2.8832662470724135,-0.8399540601235088,1.129717951629244
1.3132356750232659,-2.4966282478281543,1.129717951629244
1.3132356750232659,0.5184213668665001,-2.4966282478281543
1.3132356750232659,0.5184213668665001,1.129717951629244
1.3132356750232659,0.5184213668665001,-0.8399540601235088
1.3132356750232659,-0.8399540601235088,-2.4966282478281543
1.3132356750232659,-0.8399540601235088,1.129717951629244
0.5184213668665001,-2.4966282478281543,1.129717951629244
0.5184213668665001,-0.8399540601235088,-2.4966282478281543
0.5184213668665001,-0.8399540601235088,1.129717951629244
-0.8399540601235088,-2.4966282478281543,1.129717951629244
