0,1,2
-3.969414749459973,2.746050058397112,-0.3950384672623998
-3.969414749459973,2.746050058397112,-0.762218298058229
-3.969414749459973,2.746050058397112,2.399333411438515
-3.969414749459973,2.746050058397112,-1.4097731289442588
-3.969414749459973,2.746050058397112,1.1950429016415982
-3.969414749459973,2.746050058397112,1.2674477102458317
-3.969414749459973,2.746050058397112,-0.8624253232693644
-3.969414749459973,2.746050058397112,-4.188103459295967
-3.969414749459973,-0.3950384672623998,-0.762218298058229
-3.969414749459973,-0.3950384672623998,2.399333411438515
-3.969414749459973,-0.3950384672623998,-1.4097731289442588
-3.969414749459973,-0.3950384672623998,1.1950429016415982
-3.969414749459973,-0.3950384672623998,1.2674477102458317
-3.969414749459973,-0.3950384672623998,-0.8624253232693644
-3.969414749459973,-0.3950384672623998,-4.188103459295967
-3.969414749459973,-0.762218298058229,2.399333411438515
-3.969414749459973,-0.762218298058229,-1.4097731289442588
-3.969414749459973,-0.762218298058229,1.1950429016415982
-3.969414749459973,-0.762218298058229,1.2674477102458317
-3.969414749459973,-0.762218298058229,-0.8624253232693644
-3.969414749459973,-0.762218298058229,-4.188103459295967
-3.969414749459973,2.399333411438515,-0.8624253232693644
-3.969414749459973,2.399333411438515,-4.188103459295967
-3.969414749459973,2.399333411438515,-1.4097731289442588
-3.969414749459973,2.399333411438515,1.1950429016415982
-3.969414749459973,2.399333411438515,1.2674477102458317
-3.969414749459973,-1.4097731289442588,-0.8624253232693644
-3.969414749459973,-1.4097731289442588,-4.188103459295967
-3.969414749459973,-1.4097731289442588,1.1950429016415982
-3.969414749459973,-1.4097731289442588,1.2674477102458317
-3.969414749459973,1.1950429016415982,-0.8624253232693644
-3.969414749459973,1.1950429016415982,-4.188103459295967
-3.969414749459973,1.1950429016415982,1.2674477102458317
-3.969414749459973,1.2674477102458317,-0.8624253232693644
-3.969414749459973,1.2674477102458317,-4.188103459295967
-3.969414749459973,-0.8624253232693644,-4.188103459295967
2.746050058397112,-0.3950384672623998,-0.762218298058229
2.746050058397112,-0.3950384672623998,2.399333411438515
2.746050058397112,-0.3950384672623998,-1.4097731289442588
2.746050058397112,-0.3950384672623998,1.1950429016415982
2.746050058397112,-0.3950384672623998,1.2674477102458317
2.746050058397112,-0.3950384672623998,-0.8624253232693644
2.746050058397112,-0.3950384672623998,-4.188103459295967
2.746050058397112,-0.762218298058229,2.399333411438515
2.746050058397112,-0.762218298058229,-1.4097731289442588
2.746050058397112,-0.762218298058229,1.1950429016415982
2.746050058397112,-0.762218298058229,1.2674477102458317
2.746050058397112,-0.762218298058229,-0.8624253232693644
2.746050058397112,-0.762218298058229,-4.188103459295967
2.746050058397112,2.399333411438515,-0.8624253232693644
2.746050058397112,2.399333411438515,-4.188103459295967
2.746050058397112,2.399333411438515,-1.4097731289442588
2.746050058397112,2.399333411438515,1.1950429016415982
2.746050058397112,2.399333411438515,1.2674477102458317
2.746050058397112,-1.4097731289442588,-0.8624253232693644
2.746050058397112,-1.4097731289442588,-4.188103459295967
2.746050058397112,-1.4097731289442588,1.1950429016415982
2.746050058397112,-1.4097731289442588,1.2674477102458317
2.746050058397112,1.1950429016415982,-0.8624253232693644
2.746050058397112,1.1950429016415982,-4.188103459295967
2.746050058397112,1.1950429016415982,1.2674477102458317
2.746050058397112,1.2674477102458317,-0.8624253232693644
2.746050058397112,1.2674477102458317,-4.188103459295967
2.746050058397112,-0.8624253232693644,-4.188103459295967
-0.3950384672623998,-0.762218298058229,2.399333411438515
-0.3950384672623998,-0.762218298058229,-1.4097731289442588
-0.3950384672623998,-0.762218298058229,1.1950429016415982
-0.3950384672623998,-0.762218298058229,1.2674477102458317
-0.3950384672623998,-0.762218298058229,-0.8624253232693644
-0.3950384672623998,-0.762218298058229,-4.188103459295967
-0.3950384672623998,2.399333411438515,-0.8624253232693644
-0.3950384672623998,2.399333411438515,-4.188103459295967
-0.3950384672623998,2.399333411438515,-1.4097731289442588
-0.3950384672623998,2.399333411438515,1.1950429016415982
-0.3950384672623998,2.399333411438515,1.2674477102458317
-0.3950384672623998,-1.4097731289442588,-0.8624253232693644
-0.3950384672623998,-1.4097731289442588,-4.188103459295967
-0.3950384672623998,-1.4097731289442588,1.1950429016415982
-0.3950384672623998,-1.4097731289442588,1.2674477102458317
-0.3950384672623998,1.1950429016415982,-0.8624253232693644
-0.3950384672623998,1.1950429016415982,-4.188103459295967
-0.3950384672623998,1.1950429016415982,1.2674477102458317
-0.3950384672623998,1.2674477102458317,-0.8624253232693644
-0.3950384672623998,1.2674477102458317,-4.188103459295967
-0.3950384672623998,-0.8624253232693644,-4.188103459295967
-0.762218298058229,2.399333411438515,-0.8624253232693644
-0.762218298058229,2.399333411438515,-4.188103459295967
-0.762218298058229,2.399333411438515,-1.4097731289442588
-0.762218298058229,2.399333411438515,1.1950429016415982
-0.762218298058229,2.399333411438515,1.2674477102458317
-0.762218298058229,-1.4097731289442588,-0.8624253232693644
-0.762218298058229,-1.4097731289442588,-4.188103459295967
-0.762218298058229,-1.4097731289442588,1.1950429016415982
-0.762218298058229,-1.4097731289442588,1.2674477102458317
-0.762218298058229,1.1950429016415982,-0.8624253232693644
-0.762218298058229,1.1950429016415982,-4.188103459295967
-0.762218298058229,1.1950429016415982,1.2674477102458317
-0.762218298058229,1.2674477102458317,-0.8624253232693644
-0.762218298058229,1.2674477102458317,-4.188103459295967
-0.762218298058229,-0.8624253232693644,-4.188103459295967
2.399333411438515,-0.8624253232693644,-4.188103459295967
2.399333411438515,-1.4097731289442588,-0.8624253232693644
2.399333411438515,-1.4097731289442588,-4.188103459295967
2.399333411438515,-1.4097731289442588,1.1950429016415982
2.399333411438515,-1.4097731289442588,1.2674477102458317
2.399333411438515,1.1950429016415982,-0.8624253232693644
2.399333411438515,1.1950429016415982,-4.188103459295967
2.399333411438515,1.1950429016415982,1.2674477102458317
2.399333411438515,1.2674477102458317,-0.8624253232693644
2.399333411438515,1.2674477102458317,-4.188103459295967
-1.4097731289442588,-0.8624253232693644,-4.188103459295967
-1.4097731289442588,1.1950429016415982,-0.8624253232693644
-1.4097731289442588,1.1950429016415982,-4.188103459295967
-1.4097731289442588,1.1950429016415982,1.2674477102458317
-1.4097731289442588,1.2674477102458317,-0.8624253232693644
-1.4097731289442588,1.2674477102458317,-4.188103459295967
1.1950429016415982,-0.8624253232693644,-4.188103459295967
1.1950429016415982,1.2674477102458317,-0.8624253232693644
1.1950429016415982,1.2674477102458317,-4.188103459295967
1.2674477102458317,-0.8624253232693644,-4.188103459295967
