0,1,2
-2.923544500943332,5.261076280567025,-1.3246166352426398
-2.923544500943332,5.261076280567025,1.2346615690368996
-2.923544500943332,5.261076280567025,2.040881917286875
-2.923544500943332,5.261076280567025,0.11071727017072137
-2.923544500943332,5.261076280567025,-2.519164718827093
-2.923544500943332,5.261076280567025,1.7083047236137119
-2.923544500943332,5.261076280567025,-0.7079531773642699
-2.923544500943332,5.261076280567025,-2.1966216273854338
-2.923544500943332,-1.3246166352426398,1.2346615690368996
-2.923544500943332,-1.3246166352426398,2.040881917286875
-2.923544500943332,-1.3246166352426398,0.11071727017072137
-2.923544500943332,-1.3246166352426398,-2.519164718827093
-2.923544500943332,-1.3246166352426398,1.7083047236137119
-2.923544500943332,-1.3246166352426398,-0.7079531773642699
-2.923544500943332,-1.3246166352426398,-2.1966216273854338
-2.923544500943332,1.2346615690368996,2.040881917286875
-2.923544500943332,1.2346615690368996,0.11071727017072137
-2.923544500943332,1.2346615690368996,-2.519164718827093
-2.923544500943332,1.2346615690368996,1.7083047236137119
-2.923544500943332,1.2346615690368996,-0.7079531773642699
-2.923544500943332,1.2346615690368996,-2.1966216273854338
-2.923544500943332,2.040881917286875,-0.7079531773642699
-2.923544500943332,2.040881917286875,-2.1966216273854338
-2.923544500943332,2.040881917286875,0.11071727017072137
-2.923544500943332,2.040881917286875,-2.519164718827093
-2.923544500943332,2.040881917286875,1.7083047236137119
-2.923544500943332,0.11071727017072137,-0.7079531773642699
-2.923544500943332,0.11071727017072137,-2.1966216273854338
-2.923544500943332,0.11071727017072137,-2.519164718827093
-2.923544500943332,0.11071727017072137,1.7083047236137119
-2.923544500943332,-2.519164718827093,-0.7079531773642699
-2.923544500943332,-2.519164718827093,-2.1966216273854338
-2.923544500943332,-2.519164718827093,1.7083047236137119
-2.923544500943332,1.7083047236137119,-0.7079531773642699
-2.923544500943332,1.7083047236137119,-2.1966216273854338
-2.923544500943332,-0.7079531773642699,-2.1966216273854338
5.261076280567025,-1.3246166352426398,1.2346615690368996
5.261076280567025,-1.3246166352426398,2.040881917286875
5.261076280567025,-1.3246166352426398,0.11071727017072137
5.261076280567025,-1.3246166352426398,-2.519164718827093
5.261076280567025,-1.3246166352426398,1.7083047236137119
5.261076280567025,-1.3246166352426398,-0.7079531773642699
5.261076280567025,-1.3246166352426398,-2.1966216273854338
5.261076280567025,1.2346615690368996,2.040881917286875
5.261076280567025,1.2346615690368996,0.11071727017072137
5.261076280567025,1.2346615690368996,-2.519164718827093
5.261076280567025,1.2346615690368996,1.7083047236137119
5.261076280567025,1.2346615690368996,-0.7079531773642699
5.261076280567025,1.2346615690368996,-2.1966216273854338
5.261076280567025,2.040881917286875,-0.7079531773642699
5.261076280567025,2.040881917286875,-2.1966216273854338
5.261076280567025,2.040881917286875,0.11071727017072137
5.261076280567025,2.040881917286875,-2.519164718827093
5.261076280567025,2.040881917286875,1.7083047236137119
5.261076280567025,0.11071727017072137,-0.7079531773642699
5.261076280567025,0.11071727017072137,-2.1966216273854338
5.261076280567025,0.11071727017072137,-2.519164718827093
5.261076280567025,0.11071727017072137,1.7083047236137119
5.261076280567025,-2.519164718827093,-0.7079531773642699
5.261076280567025,-2.519164718827093,-2.1966216273854338
5.261076280567025,-2.519164718827093,1.7083047236137119
5.261076280567025,1.7083047236137119,-0.7079531773642699
5.261076280567025,1.7083047236137119,-2.1966216273854338
5.261076280567025,-0.7079531773642699,-2.1966216273854338
-1.3246166352426398,1.2346615690368996,2.040881917286875
-1.3246166352426398,1.2346615690368996,0.11071727017072137
-1.3246166352426398,1.2346615690368996,-2.519164718827093
-1.3246166352426398,1.2346615690368996,1.7083047236137119
-1.3246166352426398,1.2346615690368996,-0.7079531773642699
-1.3246166352426398,1.2346615690368996,-2.1966216273854338
-1.3246166352426398,2.040881917286875,-0.7079531773642699
-1.3246166352426398,2.040881917286875,-2.1966216273854338
-1.3246166352426398,2.040881917286875,0.11071727017072137
-1.3246166352426398,2.040881917286875,-2.519164718827093
-1.3246166352426398,2.040881917286875,1.7083047236137119
-1.3246166352426398,0.11071727017072137,-0.7079531773642699
-1.3246166352426398,0.11071727017072137,-2.1966216273854338
-1.3246166352426398,0.11071727017072137,-2.519164718827093
-1.3246166352426398,0.11071727017072137,1.7083047236137119
-1.3246166352426398,-2.519164718827093,-0.7079531773642699
-1.3246166352426398,-2.519164718827093,-2.1966216273854338
-1.3246166352426398,-2.519164718827093,1.7083047236137119
-1.3246166352426398,1.7083047236137119,-0.7079531773642699
-1.3246166352426398,1.7083047236137119,-2.1966216273854338
-1.3246166352426398,-0.7079531773642699,-2.1966216273854338
1.2346615690368996,2.040881917286875,-0.7079531773642699
1.2346615690368996,2.040881917286875,-2.1966216273854338
1.2346615690368996,2.040881917286875,0.11071727017072137
1.2346615690368996,2.040881917286875,-2.519164718827093
1.2346615690368996,2.040881917286875,1.7083047236137119
1.2346615690368996,0.11071727017072137,-0.7079531773642699
1.2346615690368996,0.11071727017072137,-2.1966216273854338
1.2346615690368996,0.11071727017072137,-2.519164718827093
1.2346615690368996,0.11071727017072137,1.7083047236137119
1.2346615690368996,-2.519164718827093,-0.7079531773642699
1.2346615690368996,-2.519164718827093,-2.1966216273854338
1.2346615690368996,-2.519164718827093,1.7083047236137119
1.2346615690368996,1.7083047236137119,-0.7079531773642699
1.2346615690368996,1.7083047236137119,-2.1966216273854338
1.2346615690368996,-0.7079531773642699,-2.1966216273854338
2.040881917286875,-0.7079531773642699,-2.1966216273854338
2.040881917286875,0.11071727017072137,-0.7079531773642699
2.040881917286875,0.11071727017072137,-2.1966216273854338
2.040881917286875,0.11071727017072137,-2.519164718827093
2.040881917286875,0.11071727017072137,1.7083047236137119
2.040881917286875,-2.519164718827093,-0.7079531773642699
2.040881917286875,-2.519164718827093,-2.1966216273854338
2.040881917286875,-2.519164718827093,1.7083047236137119
2.040881917286875,1.7083047236137119,-0.7079531773642699
2.040881917286875,1.7083047236137119,-2.1966216273854338
0.11071727017072137,-0.7079531773642699,-2.1966216273854338
0.11071727017072137,-2.519164718827093,-0.7079531773642699
0.11071727017072137,-2.519164718827093,-2.1966216273854338
0.11071727017072137,-2.519164718827093,1.7083047236137119
0.11071727017072137,1.7083047236137119,-0.7079531773642699
0.11071727017072137,1.7083047236137119,-2.1966216273854338
-2.519164718827093,-0.7079531773642699,-2.1966216273854338
-2.519164718827093,1.7083047236137119,-0.7079531773642699
-2.519164718827093,1.7083047236137119,-2.1966216273854338
1.7083047236137119,-0.7079531773642699,-2.1966216273854338
