0,1,2
-1.3705229366334328,0.0013607182359661445,1.020199399950761
-1.3705229366334328,0.0013607182359661445,0.5477247102427004
-1.3705229366334328,0.0013607182359661445,0.8647402583379485
-1.3705229366334328,0.0013607182359661445,1.1027333868174425
-1.3705229366334328,0.0013607182359661445,3.204397129195942
-1.3705229366334328,0.0013607182359661445,1.8485463965198736
-1.3705229366334328,0.0013607182359661445,-2.5363767800079393
-1.3705229366334328,0.0013607182359661445,0.7128710419151806
-1.3705229366334328,1.020199399950761,0.5477247102427004
-1.3705229366334328,1.020199399950761,0.8647402583379485
-1.3705229366334328,1.020199399950761,1.1027333868174425
-1.3705229366334328,1.020199399950761,3.204397129195942
-1.3705229366334328,1.020199399950761,1.8485463965198736
-1.3705229366334328,1.020199399950761,-2.5363767800079393
-1.3705229366334328,1.020199399950761,0.7128710419151806
-1.3705229366334328,0.5477247102427004,0.8647402583379485
-1.3705229366334328,0.5477247102427004,1.1027333868174425
-1.3705229366334328,0.5477247102427004,3.204397129195942
-1.3705229366334328,0.5477247102427004,1.8485463965198736
-1.3705229366334328,0.5477247102427004,-2.5363767800079393
-1.3705229366334328,0.5477247102427004,0.7128710419151806
-1.3705229366334328,0.8647402583379485,-2.5363767800079393
-1.3705229366334328,0.8647402583379485,0.7128710419151806
-1.3705229366334328,0.8647402583379485,1.1027333868174425
-1.3705229366334328,0.8647402583379485,3.204397129195942
-1.3705229366334328,0.8647402583379485,1.8485463965198736
-1.3705229366334328,1.1027333868174425,-2.5363767800079393
-1.3705229366334328,1.1027333868174425,0.7128710419151806
-1.3705229366334328,1.1027333868174425,3.204397129195942
-1.3705229366334328,1.1027333868174425,1.8485463965198736
-1.3705229366334328,3.204397129195942,-2.5363767800079393
-1.3705229366334328,3.204397129195942,0.7128710419151806
-1.3705229366334328,3.204397129195942,1.8485463965198736
-1.3705229366334328,1.8485463965198736,-2.5363767800079393
-1.3705229366334328,1.8485463965198736,0.7128710419151806
-1.3705229366334328,-2.5363767800079393,0.7128710419151806
0.0013607182359661445,1.020199399950761,0.5477247102427004
0.0013607182359661445,1.020199399950761,0.8647402583379485
0.0013607182359661445,1.020199399950761,1.1027333868174425
0.0013607182359661445,1.020199399950761,3.204397129195942
0.0013607182359661445,1.020199399950761,1.8485463965198736
0.0013607182359661445,1.020199399950761,-2.5363767800079393
0.0013607182359661445,1.020199399950761,0.7128710419151806
0.0013607182359661445,0.5477247102427004,0.8647402583379485
0.0013607182359661445,0.5477247102427004,1.1027333868174425
0.0013607182359661445,0.5477247102427004,3.204397129195942
0.0013607182359661445,0.5477247102427004,1.8485463965198736
0.0013607182359661445,0.5477247102427004,-2.5363767800079393
0.0013607182359661445,0.5477247102427004,0.7128710419151806
0.0013607182359661445,0.8647402583379485,-2.5363767800079393
0.0013607182359661445,0.8647402583379485,0.7128710419151806
0.0013607182359661445,0.8647402583379485,1.1027333868174425
0.0013607182359661445,0.8647402583379485,3.204397129195942
0.0013607182359661445,0.8647402583379485,1.8485463965198736
0.0013607182359661445,1.1027333868174425,-2.5363767800079393
0.0013607182359661445,1.1027333868174425,0.7128710419151806
0.0013607182359661445,1.1027333868174425,3.204397129195942
0.0013607182359661445,1.1027333868174425,1.8485463965198736
0.0013607182359661445,3.204397129195942,-2.5363767800079393
0.0013607182359661445,3.204397129195942,0.7128710419151806
0.0013607182359661445,3.204397129195942,1.8485463965198736
0.0013607182359661445,1.8485463965198736,-2.5363767800079393
0.0013607182359661445,1.8485463965198736,0.7128710419151806
0.0013607182359661445,-2.5363767800079393,0.7128710419151806
1.020199399950761,0.5477247102427004,0.8647402583379485
1.020199399950761,0.5477247102427004,1.1027333868174425
1.020199399950761,0.5477247102427004,3.204397129195942
1.020199399950761,0.5477247102427004,1.8485463965198736
1.020199399950761,0.5477247102427004,-2.5363767800079393
1.020199399950761,0.5477247102427004,0.7128710419151806
1.020199399950761,0.8647402583379485,-2.5363767800079393
1.020199399950761,0.8647402583379485,0.7128710419151806
1.020199399950761,0.8647402583379485,1.1027333868174425
1.020199399950761,0.8647402583379485,3.204397129195942
1.020199399950761,0.8647402583379485,1.8485463965198736
1.020199399950761,1.1027333868174425,-2.5363767800079393
1.020199399950761,1.1027333868174425,0.7128710419151806
1.020199399950761,1.1027333868174425,3.204397129195942
1.020199399950761,1.1027333868174425,1.8485463965198736
1.020199399950761,3.204397129195942,-2.5363767800079393
1.020199399950761,3.204397129195942,0.7128710419151806
1.020199399950761,3.204397129195942,1.8485463965198736
1.020199399950761,1.8485463965198736,-2.5363767800079393
1.020199399950761,1.8485463965198736,0.7128710419151806
1.020199399950761,-2.5363767800079393,0.7128710419151806
0.5477247102427004,0.8647402583379485,-2.5363767800079393
0.5477247102427004,0.8647402583379485,0.7128710419151806
0.5477247102427004,0.8647402583379485,1.1027333868174425
0.5477247102427004,0.8647402583379485,3.204397129195942
0.5477247102427004,0.8647402583379485,1.8485463965198736
0.5477247102427004,1.1027333868174425,-2.5363767800079393
0.5477247102427004,1.1027333868174425,0.7128710419151806
0.5477247102427004,1.1027333868174425,3.204397129195942
0.5477247102427004,1.1027333868174425,1.8485463965198736
0.5477247102427004,3.204397129195942,-2.5363767800079393
0.5477247102427004,3.204397129195942,0.7128710419151806
0.5477247102427004,3.204397129195942,1.8485463965198736
0.5477247102427004,1.8485463965198736,-2.5363767800079393
0.5477247102427004,1.8485463965198736,0.7128710419151806
0.5477247102427004,-2.5363767800079393,0.7128710419151806
0.8647402583379485,-2.5363767800079393,0.7128710419151806
0.8647402583379485,1.1027333868174425,-2.5363767800079393
0.8647402583379485,1.1027333868174425,0.7128710419151806
0.8647402583379485,1.1027333868174425,3.204397129195942
0.8647402583379485,1.1027333868174425,1.8485463965198736
0.8647402583379485,3.204397129195942,-2.5363767800079393
0.8647402583379485,3.204397129195942,0.7128710419151806
0.8647402583379485,3.204397129195942,1.8485463965198736
0.8647402583379485,1.8485463965198736,-2.5363767800079393
0.8647402583379485,1.8485463965198736,0.7128710419151806
1.1027333868174425,-2.5363767800079393,0.7128710419151806
1.1027333868174425,3.204397129195942,-2.5363767800079393
1.1027333868174425,3.204397129195942,0.7128710419151806
1.1027333868174425,3.204397129195942,1.8485463965198736
1.1027333868174425,1.8485463965198736,-2.5363767800079393
1.1027333868174425,1.8485463965198736,0.7128710419151806
3.204397129195942,-2.5363767800079393,0.7128710419151806
3.204397129195942,1.8485463965198736,-2.5363767800079393
3.204397129195942,1.8485463965198736,0.7128710419151806
1.8485463965198736,-2.5363767800079393,0.7128710419151806
