0,1,2
3.5166755454221112,0.42549458524246053,-0.322564702853961
3.5166755454221112,0.42549458524246053,-1.1898219109979993
3.5166755454221112,0.42549458524246053,2.8443941715046144
3.5166755454221112,0.42549458524246053,-1.5712809323238068
3.5166755454221112,0.42549458524246053,-3.7971711592334727
3.5166755454221112,0.42549458524246053,0.735102281347212
3.5166755454221112,0.42549458524246053,-4.39686672724735
3.5166755454221112,0.42549458524246053,-1.916957893416546
3.5166755454221112,-0.322564702853961,-1.1898219109979993
3.5166755454221112,-0.322564702853961,2.8443941715046144
3.5166755454221112,-0.322564702853961,-1.5712809323238068
3.5166755454221112,-0.322564702853961,-3.7971711592334727
3.5166755454221112,-0.322564702853961,0.735102281347212
3.5166755454221112,-0.322564702853961,-4.39686672724735
3.5166755454221112,-0.322564702853961,-1.916957893416546
3.5166755454221112,-1.1898219109979993,2.8443941715046144
3.5166755454221112,-1.1898219109979993,-1.5712809323238068
3.5166755454221112,-1.1898219109979993,-3.7971711592334727
3.5166755454221112,-1.1898219109979993,0.735102281347212
3.5166755454221112,-1.1898219109979993,-4.39686672724735
3.5166755454221112,-1.1898219109979993,-1.916957893416546
3.5166755454221112,2.8443941715046144,-4.39686672724735
3.5166755454221112,2.8443941715046144,-1.916957893416546
3.5166755454221112,2.8443941715046144,-1.5712809323238068
3.5166755454221112,2.8443941715046144,-3.7971711592334727
3.5166755454221112,2.8443941715046144,0.735102281347212
3.5166755454221112,-1.5712809323238068,-4.39686672724735
3.5166755454221112,-1.5712809323238068,-1.916957893416546
3.5166755454221112,-1.5712809323238068,-3.7971711592334727
3.5166755454221112,-1.5712809323238068,0.735102281347212
3.5166755454221112,-3.7971711592334727,-4.39686672724735
3.5166755454221112,-3.7971711592334727,-1.916957893416546
3.5166755454221112,-3.7971711592334727,0.735102281347212
3.5166755454221112,0.735102281347212,-4.39686672724735
3.5166755454221112,0.735102281347212,-1.916957893416546
3.5166755454221112,-4.39686672724735,-1.916957893416546
0.42549458524246053,-0.322564702853961,-1.1898219109979993
0.42549458524246053,-0.322564702853961,2.8443941715046144
0.42549458524246053,-0.322564702853961,-1.5712809323238068
0.42549458524246053,-0.322564702853961,-3.7971711592334727
0.42549458524246053,-0.322564702853961,0.735102281347212
0.42549458524246053,-0.322564702853961,-4.39686672724735
0.42549458524246053,-0.322564702853961,-1.916957893416546
0.42549458524246053,-1.1898219109979993,2.8443941715046144
0.42549458524246053,-1.1898219109979993,-1.5712809323238068
0.42549458524246053,-1.1898219109979993,-3.7971711592334727
0.42549458524246053,-1.1898219109979993,0.735102281347212
0.42549458524246053,-1.1898219109979993,-4.39686672724735
0.42549458524246053,-1.1898219109979993,-1.916957893416546
0.42549458524246053,2.8443941715046144,-4.39686672724735
0.42549458524246053,2.8443941715046144,-1.916957893416546
0.42549458524246053,2.8443941715046144,-1.5712809323238068
0.42549458524246053,2.8443941715046144,-3.7971711592334727
0.42549458524246053,2.8443941715046144,0.735102281347212
0.42549458524246053,-1.5712809323238068,-4.39686672724735
0.42549458524246053,-1.5712809323238068,-1.916957893416546
0.42549458524246053,-1.5712809323238068,-3.7971711592334727
0.42549458524246053,-1.5712809323238068,0.735102281347212
0.42549458524246053,-3.7971711592334727,-4.39686672724735
0.42549458524246053,-3.7971711592334727,-1.916957893416546
0.42549458524246053,-3.7971711592334727,0.735102281347212
0.42549458524246053,0.735102281347212,-4.39686672724735
0.42549458524246053,0.735102281347212,-1.916957893416546
0.42549458524246053,-4.39686672724735,-1.916957893416546
-0.322564702853961,-1.1898219109979993,2.8443941715046144
-0.322564702853961,-1.1898219109979993,-1.5712809323238068
-0.322564702853961,-1.1898219109979993,-3.7971711592334727
-0.322564702853961,-1.1898219109979993,0.735102281347212
-0.322564702853961,-1.1898219109979993,-4.39686672724735
-0.322564702853961,-1.1898219109979993,-1.916957893416546
-0.322564702853961,2.8443941715046144,-4.39686672724735
-0.322564702853961,2.8443941715046144,-1.916957893416546
-0.322564702853961,2.8443941715046144,-1.5712809323238068
-0.322564702853961,2.8443941715046144,-3.7971711592334727
-0.322564702853961,2.8443941715046144,0.735102281347212
-0.322564702853961,-1.5712809323238068,-4.39686672724735
-0.322564702853961,-1.5712809323238068,-1.916957893416546
-0.322564702853961,-1.5712809323238068,-3.7971711592334727
-0.322564702853961,-1.5712809323238068,0.735102281347212
-0.322564702853961,-3.7971711592334727,-4.39686672724735
-0.322564702853961,-3.7971711592334727,-1.916957893416546
-0.322564702853961,-3.7971711592334727,0.735102281347212
-0.322564702853961,0.735102281347212,-4.39686672724735
-0.322564702853961,0.735102281347212,-1.916957893416546
-0.322564702853961,-4.39686672724735,-1.916957893416546
-1.1898219109979993,2.8443941715046144,-4.39686672724735
-1.1898219109979993,2.8443941715046144,-1.916957893416546
-1.1898219109979993,2.8443941715046144,-1.5712809323238068
-1.1898219109979993,2.8443941715046144,-3.7971711592334727
-1.1898219109979993,2.8443941715046144,0.735102281347212
-1.1898219109979993,-1.5712809323238068,-4.39686672724735
-1.1898219109979993,-1.5712809323238068,-1.916957893416546
-1.1898219109979993,-1.5712809323238068,-3.7971711592334727
-1.1898219109979993,-1.5712809323238068,0.735102281347212
-1.1898219109979993,-3.7971711592334727,-4.39686672724735
-1.1898219109979993,-3.7971711592334727,-1.916957893416546
-1.1898219109979993,-3.7971711592334727,0.735102281347212
-1.1898219109979993,0.735102281347212,-4.39686672724735
-1.1898219109979993,0.735102281347212,-1.916957893416546
-1.1898219109979993,-4.39686672724735,-1.916957893416546
2.8443941715046144,-4.39686672724735,-1.916957893416546
2.8443941715046144,-1.5712809323238068,-4.39686672724735
2.8443941715046144,-1.5712809323238068,-1.916957893416546
2.8443941715046144,-1.5712809323238068,-3.7971711592334727
2.8443941715046144,-1.5712809323238068,0.735102281347212
2.8443941715046144,-3.7971711592334727,-4.39686672724735
2.8443941715046144,-3.7971711592334727,-1.916957893416546
2.8443941715046144,-3.7971711592334727,0.735102281347212
2.8443941715046144,0.735102281347212,-4.39686672724735
2.8443941715046144,0.735102281347212,-1.916957893416546
-1.5712809323238068,-4.39686672724735,-1.916957893416546
-1.5712809323238068,-3.7971711592334727,-4.39686672724735
-1.5712809323238068,-3.7971711592334727,-1.916957893416546
-1.5712809323238068,-3.7971711592334727,0.735102281347212
-1.5712809323238068,0.735102281347212,-4.39686672724735
-1.5712809323238068,0.735102281347212,-1.916957893416546
-3.7971711592334727,-4.39686672724735,-1.916957893416546
-3.7971711592334727,0.735102281347212,-4.39686672724735
-3.7971711592334727,0.735102281347212,-1.916957893416546
0.735102281347212,-4.39686672724735,-1.916957893416546
