0,1,2
1.0426525716129047,5.6898988098291605,1.7329050412910352
1.0426525716129047,5.6898988098291605,4.7418623362257115
1.0426525716129047,5.6898988098291605,0.8136312767419326
1.0426525716129047,5.6898988098291605,-0.00799211078443247
1.0426525716129047,5.6898988098291605,2.0488958836983873
1.0426525716129047,5.6898988098291605,1.319983483608679
1.0426525716129047,5.6898988098291605,-3.109475998019934
1.0426525716129047,5.6898988098291605,1.4867710392129965
1.0426525716129047,1.7329050412910352,4.7418623362257115
1.0426525716129047,1.7329050412910352,0.8136312767419326
1.0426525716129047,1.7329050412910352,-0.00799211078443247
1.0426525716129047,1.7329050412910352,2.0488958836983873
1.0426525716129047,1.7329050412910352,1.319983483608679
1.0426525716129047,1.7329050412910352,-3.109475998019934
1.0426525716129047,1.7329050412910352,1.4867710392129965
1.0426525716129047,4.7418623362257115,0.8136312767419326
1.0426525716129047,4.7418623362257115,-0.00799211078443247
1.0426525716129047,4.7418623362257115,2.0488958836983873
1.0426525716129047,4.7418623362257115,1.319983483608679
1.0426525716129047,4.7418623362257115,-3.109475998019934
1.0426525716129047,4.7418623362257115,1.4867710392129965
1.0426525716129047,0.8136312767419326,-3.109475998019934
1.0426525716129047,0.8136312767419326,1.4867710392129965
1.0426525716129047,0.8136312767419326,-0.00799211078443247
1.0426525716129047,0.8136312767419326,2.0488958836983873
1.0426525716129047,0.8136312767419326,1.319983483608679
1.0426525716129047,-0.00799211078443247,-3.109475998019934
1.0426525716129047,-0.00799211078443247,1.4867710392129965
1.0426525716129047,-0.00799211078443247,2.0488958836983873
1.0426525716129047,-0.00799211078443247,1.319983483608679
1.0426525716129047,2.0488958836983873,-3.109475998019934
1.0426525716129047,2.0488958836983873,1.4867710392129965
1.0426525716129047,2.0488958836983873,1.319983483608679
1.0426525716129047,1.319983483608679,-3.109475998019934
1.0426525716129047,1.319983483608679,1.4867710392129965
1.0426525716129047,-3.109475998019934,1.4867710392129965
5.6898988098291605,1.7329050412910352,4.7418623362257115
5.6898988098291605,1.7329050412910352,0.8136312767419326
5.6898988098291605,1.7329050412910352,-0.00799211078443247
5.6898988098291605,1.7329050412910352,2.0488958836983873
5.6898988098291605,1.7329050412910352,1.319983483608679
5.6898988098291605,1.7329050412910352,-3.109475998019934
5.6898988098291605,1.7329050412910352,1.4867710392129965
5.6898988098291605,4.7418623362257115,0.8136312767419326
5.6898988098291605,4.7418623362257115,-0.00799211078443247
5.6898988098291605,4.7418623362257115,2.0488958836983873
5.6898988098291605,4.7418623362257115,1.319983483608679
5.6898988098291605,4.7418623362257115,-3.109475998019934
5.6898988098291605,4.7418623362257115,1.4867710392129965
5.6898988098291605,0.8136312767419326,-3.109475998019934
5.6898988098291605,0.8136312767419326,1.4867710392129965
5.6898988098291605,0.8136312767419326,-0.00799211078443247
5.6898988098291605,0.8136312767419326,2.0488958836983873
5.6898988098291605,0.8136312767419326,1.319983483608679
5.6898988098291605,-0.00799211078443247,-3.109475998019934
5.6898988098291605,-0.00799211078443247,1.4867710392129965
5.6898988098291605,-0.00799211078443247,2.0488958836983873
5.6898988098291605,-0.00799211078443247,1.319983483608679
5.6898988098291605,2.0488958836983873,-3.109475998019934
5.6898988098291605,2.0488958836983873,1.4867710392129965
5.6898988098291605,2.0488958836983873,1.319983483608679
5.6898988098291605,1.319983483608679,-3.109475998019934
5.6898988098291605,1.319983483608679,1.4867710392129965
5.6898988098291605,-3.109475998019934,1.4867710392129965
1.7329050412910352,4.7418623362257115,0.8136312767419326
1.7329050412910352,4.7418623362257115,-0.00799211078443247
1.7329050412910352,4.7418623362257115,2.0488958836983873
1.7329050412910352,4.7418623362257115,1.319983483608679
1.7329050412910352,4.7418623362257115,-3.109475998019934
1.7329050412910352,4.7418623362257115,1.4867710392129965
1.7329050412910352,0.8136312767419326,-3.109475998019934
1.7329050412910352,0.8136312767419326,1.4867710392129965
1.7329050412910352,0.8136312767419326,-0.00799211078443247
1.7329050412910352,0.8136312767419326,2.0488958836983873
1.7329050412910352,0.8136312767419326,1.319983483608679
1.7329050412910352,-0.00799211078443247,-3.109475998019934
1.7329050412910352,-0.00799211078443247,1.4867710392129965
1.7329050412910352,-0.00799211078443247,2.0488958836983873
1.7329050412910352,-0.00799211078443247,1.319983483608679
1.7329050412910352,2.0488958836983873,-3.109475998019934
1.7329050412910352,2.0488958836983873,1.4867710392129965
1.7329050412910352,2.0488958836983873,1.319983483608679
1.7329050412910352,1.319983483608679,-3.109475998019934
1.7329050412910352,1.319983483608679,1.4867710392129965
1.7329050412910352,-3.109475998019934,1.4867710392129965
4.7418623362257115,0.8136312767419326,-3.109475998019934
4.7418623362257115,0.8136312767419326,1.4867710392129965
4.7418623362257115,0.8136312767419326,-0.00799211078443247
4.7418623362257115,0.8136312767419326,2.0488958836983873
4.7418623362257115,0.8136312767419326,1.319983483608679
4.7418623362257115,-0.00799211078443247,-3.109475998019934
4.7418623362257115,-0.00799211078443247,1.4867710392129965
4.7418623362257115,-0.00799211078443247,2.0488958836983873
4.7418623362257115,-0.00799211078443247,1.319983483608679
4.7418623362257115,2.0488958836983873,-3.109475998019934
4.7418623362257115,2.0488958836983873,1.4867710392129965
4.7418623362257115,2.0488958836983873,1.319983483608679
4.7418623362257115,1.319983483608679,-3.109475998019934
4.7418623362257115,1.319983483608679,1.4867710392129965
4.7418623362257115,-3.109475998019934,1.4867710392129965
0.8136312767419326,-3.109475998019934,1.4867710392129965
0.8136312767419326,-0.00799211078443247,-3.109475998019934
0.8136312767419326,-0.00799211078443247,1.4867710392129965
0.8136312767419326,-0.00799211078443247,2.0488958836983873
0.8136312767419326,-0.00799211078443247,1.319983483608679
0.8136312767419326,2.0488958836983873,-3.109475998019934
0.8136312767419326,2.0488958836983873,1.4867710392129965
0.8136312767419326,2.0488958836983873,1.319983483608679
0.8136312767419326,1.319983483608679,-3.109475998019934
0.8136312767419326,1.319983483608679,1.4867710392129965
-0.00799211078443247,-3.109475998019934,1.4867710392129965
-0.00799211078443247,2.0488958836983873,-3.109475998019934
-0.00799211078443247,2.0488958836983873,1.4867710392129965
-0.00799211078443247,2.0488958836983873,1.319983483608679
-0.00799211078443247,1.319983483608679,-3.109475998019934
-0.00799211078443247,1.319983483608679,1.4867710392129965
2.0488958836983873,-3.109475998019934,1.4867710392129965
2.0488958836983873,1.319983483608679,-3.109475998019934
2.0488958836983873,1.319983483608679,1.4867710392129965
1.319983483608679,-3.109475998019934,1.4867710392129965
