0,1,2
3.7432334631268116,2.0598578590009327,1.3557160266645365
3.7432334631268116,2.0598578590009327,1.4181782623075507
3.7432334631268116,2.0598578590009327,1.1601471238945913
3.7432334631268116,2.0598578590009327,4.531476889162193
3.7432334631268116,2.0598578590009327,0.6320869499102378
3.7432334631268116,2.0598578590009327,0.0810262861241495
3.7432334631268116,2.0598578590009327,2.1329124329997944
3.7432334631268116,2.0598578590009327,-1.5986516076939417
3.7432334631268116,1.3557160266645365,1.4181782623075507
3.7432334631268116,1.3557160266645365,1.1601471238945913
3.7432334631268116,1.3557160266645365,4.531476889162193
3.7432334631268116,1.3557160266645365,0.6320869499102378
3.7432334631268116,1.3557160266645365,0.0810262861241495
3.7432334631268116,1.3557160266645365,2.1329124329997944
3.7432334631268116,1.3557160266645365,-1.5986516076939417
3.7432334631268116,1.4181782623075507,1.1601471238945913
3.7432334631268116,1.4181782623075507,4.531476889162193
3.7432334631268116,1.4181782623075507,0.6320869499102378
3.7432334631268116,1.4181782623075507,0.0810262861241495
3.7432334631268116,1.4181782623075507,2.1329124329997944
3.7432334631268116,1.4181782623075507,-1.5986516076939417
3.7432334631268116,1.1601471238945913,2.1329124329997944
3.7432334631268116,1.1601471238945913,-1.5986516076939417
3.7432334631268116,1.1601471238945913,4.531476889162193
3.7432334631268116,1.1601471238945913,0.6320869499102378
3.7432334631268116,1.1601471238945913,0.0810262861241495
3.7432334631268116,4.531476889162193,2.1329124329997944
3.7432334631268116,4.531476889162193,-1.5986516076939417
3.7432334631268116,4.531476889162193,0.6320869499102378
3.7432334631268116,4.531476889162193,0.0810262861241495
3.7432334631268116,0.6320869499102378,2.1329124329997944
3.7432334631268116,0.6320869499102378,-1.5986516076939417
3.7432334631268116,0.6320869499102378,0.0810262861241495
3.7432334631268116,0.0810262861241495,2.1329124329997944
3.7432334631268116,0.0810262861241495,-1.5986516076939417
3.7432334631268116,2.1329124329997944,-1.5986516076939417
2.0598578590009327,1.3557160266645365,1.4181782623075507
2.0598578590009327,1.3557160266645365,1.1601471238945913
2.0598578590009327,1.3557160266645365,4.531476889162193
2.0598578590009327,1.3557160266645365,0.6320869499102378
2.0598578590009327,1.3557160266645365,0.0810262861241495
2.0598578590009327,1.3557160266645365,2.1329124329997944
2.0598578590009327,1.3557160266645365,-1.5986516076939417
2.0598578590009327,1.4181782623075507,1.1601471238945913
2.0598578590009327,1.4181782623075507,4.531476889162193
2.0598578590009327,1.4181782623075507,0.6320869499102378
2.0598578590009327,1.4181782623075507,0.0810262861241495
2.0598578590009327,1.4181782623075507,2.1329124329997944
2.0598578590009327,1.4181782623075507,-1.5986516076939417
2.0598578590009327,1.1601471238945913,2.1329124329997944
2.0598578590009327,1.1601471238945913,-1.5986516076939417
2.0598578590009327,1.1601471238945913,4.531476889162193
2.0598578590009327,1.1601471238945913,0.6320869499102378
2.0598578590009327,1.1601471238945913,0.0810262861241495
2.0598578590009327,4.531476889162193,2.1329124329997944
2.0598578590009327,4.531476889162193,-1.5986516076939417
2.0598578590009327,4.531476889162193,0.6320869499102378
2.0598578590009327,4.531476889162193,0.0810262861241495
2.0598578590009327,0.6320869499102378,2.1329124329997944
2.0598578590009327,0.6320869499102378,-1.5986516076939417
2.0598578590009327,0.6320869499102378,0.0810262861241495
2.0598578590009327,0.0810262861241495,2.1329124329997944
2.0598578590009327,0.0810262861241495,-1.5986516076939417
2.0598578590009327,2.1329124329997944,-1.5986516076939417
1.3557160266645365,1.4181782623075507,1.1601471238945913
1.3557160266645365,1.4181782623075507,4.531476889162193
1.3557160266645365,1.4181782623075507,0.6320869499102378
1.3557160266645365,1.4181782623075507,0.0810262861241495
1.3557160266645365,1.4181782623075507,2.1329124329997944
1.3557160266645365,1.4181782623075507,-1.5986516076939417
1.3557160266645365,1.1601471238945913,2.1329124329997944
1.3557160266645365,1.1601471238945913,-1.5986516076939417
1.3557160266645365,1.1601471238945913,4.531476889162193
1.3557160266645365,1.1601471238945913,0.6320869499102378
1.3557160266645365,1.1601471238945913,0.0810262861241495
1.3557160266645365,4.531476889162193,2.1329124329997944
1.3557160266645365,4.531476889162193,-1.5986516076939417
1.3557160266645365,4.531476889162193,0.6320869499102378
1.3557160266645365,4.531476889162193,0.0810262861241495
1.3557160266645365,0.6320869499102378,2.1329124329997944
1.3557160266645365,0.6320869499102378,-1.5986516076939417
1.3557160266645365,0.6320869499102378,0.0810262861241495
1.3557160266645365,0.0810262861241495,2.1329124329997944
1.3557160266645365,0.0810262861241495,-1.5986516076939417
1.3557160266645365,2.1329124329997944,-1.5986516076939417
1.4181782623075507,1.1601471238945913,2.1329124329997944
1.4181782623075507,1.1601471238945913,-1.5986516076939417
1.4181782623075507,1.1601471238945913,4.531476889162193
1.4181782623075507,1.1601471238945913,0.6320869499102378
1.4181782623075507,1.1601471238945913,0.0810262861241495
1.4181782623075507,4.531476889162193,2.1329124329997944
1.4181782623075507,4.531476889162193,-1.5986516076939417
1.4181782623075507,4.531476889162193,0.6320869499102378
1.4181782623075507,4.531476889162193,0.0810262861241495
1.4181782623075507,0.6320869499102378,2.1329124329997944
1.4181782623075507,0.6320869499102378,-1.5986516076939417
1.4181782623075507,0.6320869499102378,0.0810262861241495
1.4181782623075507,0.0810262861241495,2.1329124329997944
1.4181782623075507,0.0810262861241495,-1.5986516076939417
1.4181782623075507,2.1329124329997944,-1.5986516076939417
1.1601471238945913,2.1329124329997944,-1.5986516076939417
1.1601471238945913,4.531476889162193,2.1329124329997944
1.1601471238945913,4.531476889162193,-1.5986516076939417
1.1601471238945913,4.531476889162193,0.6320869499102378
1.1601471238945913,4.531476889162193,0.0810262861241495
1.1601471238945913,0.6320869499102378,2.1329124329997944
1.1601471238945913,0.6320869499102378,-1.5986516076939417
1.1601471238945913,0.6320869499102378,0.0810262861241495
1.1601471238945913,0.0810262861241495,2.1329124329997944
1.1601471238945913,0.0810262861241495,-1.5986516076939417
4.531476889162193,2.1329124329997944,-1.5986516076939417
4.531476889162193,0.6320869499102378,2.1329124329997944
4.531476889162193,0.6320869499102378,-1.5986516076939417
4.531476889162193,0.6320869499102378,0.0810262861241495
4.531476889162193,0.0810262861241495,2.1329124329997944
4.531476889162193,0.0810262861241495,-1.5986516076939417
0.6320869499102378,2.1329124329997944,-1.5986516076939417
0.6320869499102378,0.0810262861241495,2.1329124329997944
0.6320869499102378,0.0810262861241495,-1.5986516076939417
0.0810262861241495,2.1329124329997944,-1.5986516076939417
