0,1,2
0.5824054550718087,-3.316681395537952,2.1042150202679992
0.5824054550718087,-3.316681395537952,-0.9735688579235243
0.5824054550718087,-3.316681395537952,-0.23947976342290425
0.5824054550718087,-3.316681395537952,-2.670951594983654
0.5824054550718087,-3.316681395537952,1.3113985266449995
0.5824054550718087,-3.316681395537952,-1.3482073166953796
0.5824054550718087,-3.316681395537952,2.4968073496004988
0.5824054550718087,-3.316681395537952,0.6614466655937925
0.5824054550718087,2.1042150202679992,-0.9735688579235243
0.5824054550718087,2.1042150202679992,-0.23947976342290425
0.5824054550718087,2.1042150202679992,-2.670951594983654
0.5824054550718087,2.1042150202679992,1.3113985266449995
0.5824054550718087,2.1042150202679992,-1.3482073166953796
0.5824054550718087,2.1042150202679992,2.4968073496004988
0.5824054550718087,2.1042150202679992,0.6614466655937925
0.5824054550718087,-0.9735688579235243,-0.23947976342290425
0.5824054550718087,-0.9735688579235243,-2.670951594983654
0.5824054550718087,-0.9735688579235243,1.3113985266449995
0.5824054550718087,-0.9735688579235243,-1.3482073166953796
0.5824054550718087,-0.9735688579235243,2.4968073496004988
0.5824054550718087,-0.9735688579235243,0.6614466655937925
0.5824054550718087,-0.23947976342290425,2.4968073496004988
0.5824054550718087,-0.23947976342290425,0.6614466655937925
0.5824054550718087,-0.23947976342290425,-2.670951594983654
0.5824054550718087,-0.23947976342290425,1.3113985266449995
0.5824054550718087,-0.23947976342290425,-1.3482073166953796
0.5824054550718087,-2.670951594983654,2.4968073496004988
0.5824054550718087,-2.670951594983654,0.6614466655937925
0.5824054550718087,-2.670951594983654,1.3113985266449995
0.5824054550718087,-2.670951594983654,-1.3482073166953796
0.5824054550718087,1.3113985266449995,2.4968073496004988
0.5824054550718087,1.3113985266449995,0.6614466655937925
0.5824054550718087,1.3113985266449995,-1.3482073166953796
0.5824054550718087,-1.3482073166953796,2.4968073496004988
0.5824054550718087,-1.3482073166953796,0.6614466655937925
0.5824054550718087,2.4968073496004988,0.6614466655937925
-3.316681395537952,2.1042150202679992,-0.9735688579235243
-3.316681395537952,2.1042150202679992,-0.23947976342290425
-3.316681395537952,2.1042150202679992,-2.670951594983654
-3.316681395537952,2.1042150202679992,1.3113985266449995
-3.316681395537952,2.1042150202679992,-1.3482073166953796
-3.316681395537952,2.1042150202679992,2.4968073496004988
-3.316681395537952,2.1042150202679992,0.6614466655937925
-3.316681395537952,-0.9735688579235243,-0.23947976342290425
-3.316681395537952,-0.9735688579235243,-2.670951594983654
-3.316681395537952,-0.9735688579235243,1.3113985266449995
-3.316681395537952,-0.9735688579235243,-1.3482073166953796
-3.316681395537952,-0.9735688579235243,2.4968073496004988
-3.316681395537952,-0.9735688579235243,0.6614466655937925
-3.316681395537952,-0.23947976342290425,2.4968073496004988
-3.316681395537952,-0.23947976342290425,0.6614466655937925
-3.316681395537952,-0.23947976342290425,-2.670951594983654
-3.316681395537952,-0.23947976342290425,1.3113985266449995
-3.316681395537952,-0.23947976342290425,-1.3482073166953796
-3.316681395537952,-2.670951594983654,2.4968073496004988
-3.316681395537952,-2.670951594983654,0.6614466655937925
-3.316681395537952,-2.670951594983654,1.3113985266449995
-3.316681395537952,-2.670951594983654,-1.3482073166953796
-3.316681395537952,1.3113985266449995,2.4968073496004988
-3.316681395537952,1.3113985266449995,0.6614466655937925
-3.316681395537952,1.3113985266449995,-1.3482073166953796
-3.316681395537952,-1.3482073166953796,2.4968073496004988
-3.316681395537952,-1.3482073166953796,0.6614466655937925
-3.316681395537952,2.4968073496004988,0.6614466655937925
2.1042150202679992,-0.9735688579235243,-0.23947976342290425
2.1042150202679992,-0.9735688579235243,-2.670951594983654
2.1042150202679992,-0.9735688579235243,1.3113985266449995
2.1042150202679992,-0.9735688579235243,-1.3482073166953796
2.1042150202679992,-0.9735688579235243,2.4968073496004988
2.1042150202679992,-0.9735688579235243,0.6614466655937925
2.1042150202679992,-0.23947976342290425,2.4968073496004988
2.1042150202679992,-0.23947976342290425,0.6614466655937925
2.1042150202679992,-0.23947976342290425,-2.670951594983654
2.1042150202679992,-0.23947976342290425,1.3113985266449995
2.1042150202679992,-0.23947976342290425,-1.3482073166953796
2.1042150202679992,-2.670951594983654,2.4968073496004988
2.1042150202679992,-2.670951594983654,0.6614466655937925
2.1042150202679992,-2.670951594983654,1.3113985266449995
2.1042150202679992,-2.670951594983654,-1.3482073166953796
2.1042150202679992,1.3113985266449995,2.4968073496004988
2.1042150202679992,1.3113985266449995,0.6614466655937925
2.1042150202679992,1.3113985266449995,-1.3482073166953796
2.1042150202679992,-1.3482073166953796,2.4968073496004988
2.1042150202679992,-1.3482073166953796,0.6614466655937925
2.1042150202679992,2.4968073496004988,0.6614466655937925
-0.9735688579235243,-0.23947976342290425,2.4968073496004988
-0.9735688579235243,-0.23947976342290425,0.6614466655937925
-0.9735688579235243,-0.23947976342290425,-2.670951594983654
-0.9735688579235243,-0.23947976342290425,1.3113985266449995
-0.9735688579235243,-0.23947976342290425,-1.3482073166953796
-0.9735688579235243,-2.670951594983654,2.4968073496004988
-0.9735688579235243,-2.670951594983654,0.6614466655937925
-0.9735688579235243,-2.670951594983654,1.3113985266449995
-0.9735688579235243,-2.670951594983654,-1.3482073166953796
-0.9735688579235243,1.3113985266449995,2.4968073496004988
-0.9735688579235243,1.3113985266449995,0.6614466655937925
-0.9735688579235243,1.3113985266449995,-1.3482073166953796
-0.9735688579235243,-1.3482073166953796,2.4968073496004988
-0.9735688579235243,-1.3482073166953796,0.6614466655937925
-0.9735688579235243,2.4968073496004988,0.6614466655937925
-0.23947976342290425,2.4968073496004988,0.6614466655937925
-0.23947976342290425,-2.670951594983654,2.4968073496004988
-0.23947976342290425,-2.670951594983654,0.6614466655937925
-0.23947976342290425,-2.670951594983654,1.3113985266449995
-0.23947976342290425,-2.670951594983654,-1.3482073166953796
-0.23947976342290425,1.3113985266449995,2.4968073496004988
-0.23947976342290425,1.3113985266449995,0.6614466655937925
-0.23947976342290425,1.3113985266449995,-1.3482073166953796
-0.23947976342290425,-1.3482073166953796,2.4968073496004988
-0.23947976342290425,-1.3482073166953796,0.6614466655937925
-2.670951594983654,2.4968073496004988,0.6614466655937925
-2.670951594983654,1.3113985266449995,2.4968073496004988
-2.670951594983654,1.3113985266449995,0.6614466655937925
-2.670951594983654,1.3113985266449995,-1.3482073166953796
-2.670951594983654,-1.3482073166953796,2.4968073496004988
-2.670951594983654,-1.3482073166953796,0.6614466655937925
1.3113985266449995,2.4968073496004988,0.6614466655937925
1.3113985266449995,-1.3482073166953796,2.4968073496004988
1.3113985266449995,-1.3482073166953796,0.6614466655937925
-1.3482073166953796,2.4968073496004988,0.6614466655937925
