0,1,2
1.1518544108309625,-1.010183781848401,0.9047515644841942
1.1518544108309625,-1.010183781848401,-1.4792013967365736
1.1518544108309625,-1.010183781848401,0.6871708587088156
1.1518544108309625,-1.010183781848401,-0.30246650724998425
1.1518544108309625,-1.010183781848401,3.636116906045332
1.1518544108309625,-1.010183781848401,-1.076460351317974
1.1518544108309625,-1.010183781848401,-1.3743546332618566
1.1518544108309625,-1.010183781848401,-0.756583877446046
1.1518544108309625,0.9047515644841942,-1.4792013967365736
1.1518544108309625,0.9047515644841942,0.6871708587088156
1.1518544108309625,0.9047515644841942,-0.30246650724998425
1.1518544108309625,0.9047515644841942,3.636116906045332
1.1518544108309625,0.9047515644841942,-1.076460351317974
1.1518544108309625,0.9047515644841942,-1.3743546332618566
1.1518544108309625,0.9047515644841942,-0.756583877446046
1.1518544108309625,-1.4792013967365736,0.6871708587088156
1.1518544108309625,-1.4792013967365736,-0.30246650724998425
1.1518544108309625,-1.4792013967365736,3.636116906045332
1.1518544108309625,-1.4792013967365736,-1.076460351317974
1.1518544108309625,-1.4792013967365736,-1.3743546332618566
1.1518544108309625,-1.4792013967365736,-0.756583877446046
1.1518544108309625,0.6871708587088156,-1.3743546332618566
1.1518544108309625,0.6871708587088156,-0.756583877446046
1.1518544108309625,0.6871708587088156,-0.30246650724998425
1.1518544108309625,0.6871708587088156,3.636116906045332
1.1518544108309625,0.6871708587088156,-1.076460351317974
1.1518544108309625,-0.30246650724998425,-1.3743546332618566
1.1518544108309625,-0.30246650724998425,-0.756583877446046
1.1518544108309625,-0.30246650724998425,3.636116906045332
1.1518544108309625,-0.30246650724998425,-1.076460351317974
1.1518544108309625,3.636116906045332,-1.3743546332618566
1.1518544108309625,3.636116906045332,-0.756583877446046
1.1518544108309625,3.636116906045332,-1.076460351317974
1.1518544108309625,-1.076460351317974,-1.3743546332618566
1.1518544108309625,-1.076460351317974,-0.756583877446046
1.1518544108309625,-1.3743546332618566,-0.756583877446046
-1.010183781848401,0.9047515644841942,-1.4792013967365736
-1.010183781848401,0.9047515644841942,0.6871708587088156
-1.010183781848401,0.9047515644841942,-0.30246650724998425
-1.010183781848401,0.9047515644841942,3.636116906045332
-1.010183781848401,0.9047515644841942,-1.076460351317974
-1.010183781848401,0.9047515644841942,-1.3743546332618566
-1.010183781848401,0.9047515644841942,-0.756583877446046
-1.010183781848401,-1.4792013967365736,0.6871708587088156
-1.010183781848401,-1.4792013967365736,-0.30246650724998425
-1.010183781848401,-1.4792013967365736,3.636116906045332
-1.010183781848401,-1.4792013967365736,-1.076460351317974
-1.010183781848401,-1.4792013967365736,-1.3743546332618566
-1.010183781848401,-1.4792013967365736,-0.756583877446046
-1.010183781848401,0.6871708587088156,-1.3743546332618566
-1.010183781848401,0.6871708587088156,-0.756583877446046
-1.010183781848401,0.6871708587088156,-0.30246650724998425
-1.010183781848401,0.6871708587088156,3.636116906045332
-1.010183781848401,0.6871708587088156,-1.076460351317974
-1.010183781848401,-0.30246650724998425,-1.3743546332618566
-1.010183781848401,-0.30246650724998425,-0.756583877446046
-1.010183781848401,-0.30246650724998425,3.636116906045332
-1.010183781848401,-0.30246650724998425,-1.076460351317974
-1.010183781848401,3.636116906045332,-1.3743546332618566
-1.010183781848401,3.636116906045332,-0.756583877446046
-1.010183781848401,3.636116906045332,-1.076460351317974
-1.010183781848401,-1.076460351317974,-1.3743546332618566
-1.010183781848401,-1.076460351317974,-0.756583877446046
-1.010183781848401,-1.3743546332618566,-0.756583877446046
0.9047515644841942,-1.4792013967365736,0.6871708587088156
0.9047515644841942,-1.4792013967365736,-0.30246650724998425
0.9047515644841942,-1.4792013967365736,3.636116906045332
0.9047515644841942,-1.4792013967365736,-1.076460351317974
0.9047515644841942,-1.4792013967365736,-1.3743546332618566
0.9047515644841942,-1.4792013967365736,-0.756583877446046
0.9047515644841942,0.6871708587088156,-1.3743546332618566
0.9047515644841942,0.6871708587088156,-0.756583877446046
0.9047515644841942,0.6871708587088156,-0.30246650724998425
0.9047515644841942,0.6871708587088156,3.636116906045332
0.9047515644841942,0.6871708587088156,-1.076460351317974
0.9047515644841942,-0.30246650724998425,-1.3743546332618566
0.9047515644841942,-0.30246650724998425,-0.756583877446046
0.9047515644841942,-0.30246650724998425,3.636116906045332
0.9047515644841942,-0.30246650724998425,-1.076460351317974
0.9047515644841942,3.636116906045332,-1.3743546332618566
0.9047515644841942,3.636116906045332,-0.756583877446046
0.9047515644841942,3.636116906045332,-1.076460351317974
0.9047515644841942,-1.076460351317974,-1.3743546332618566
0.9047515644841942,-1.076460351317974,-0.756583877446046
0.9047515644841942,-1.3743546332618566,-0.756583877446046
-1.4792013967365736,0.6871708587088156,-1.3743546332618566
-1.4792013967365736,0.6871708587088156,-0.756583877446046
-1.4792013967365736,0.6871708587088156,-0.30246650724998425
-1.4792013967365736,0.6871708587088156,3.636116906045332
-1.4792013967365736,0.6871708587088156,-1.076460351317974
-1.4792013967365736,-0.30246650724998425,-1.3743546332618566
-1.4792013967365736,-0.30246650724998425,-0.756583877446046
-1.4792013967365736,-0.30246650724998425,3.636116906045332
-1.4792013967365736,-0.30246650724998425,-1.076460351317974
-1.4792013967365736,3.636116906045332,-1.3743546332618566
-1.4792013967365736,3.636116906045332,-0.756583877446046
-1.4792013967365736,3.636116906045332,-1.076460351317974
-1.4792013967365736,-1.076460351317974,-1.3743546332618566
-1.4792013967365736,-1.076460351317974,-0.756583877446046
-1.4792013967365736,-1.3743546332618566,-0.756583877446046
0.6871708587088156,-1.3743546332618566,-0.756583877446046
0.6871708587088156,-0.30246650724998425,-1.3743546332618566
0.6871708587088156,-0.30246650724998425,-0.756583877446046
0.6871708587088156,-0.30246650724998425,3.636116906045332
0.6871708587088156,-0.30246650724998425,-1.076460351317974
0.6871708587088156,3.636116906045332,-1.3743546332618566
0.6871708587088156,3.636116906045332,-0.756583877446046
0.6871708587088156,3.636116906045332,-1.076460351317974
0.6871708587088156,-1.076460351317974,-1.3743546332618566
0.6871708587088156,-1.076460351317974,-0.756583877446046
-0.30246650724998425,-1.3743546332618566,-0.756583877446046
-0.30246650724998425,3.636116906045332,-1.3743546332618566
-0.30246650724998425,3.636116906045332,-0.756583877446046
-0.30246650724998425,3.636116906045332,-1.076460351317974
-0.30246650724998425,-1.076460351317974,-1.3743546332618566
-0.30246650724998425,-1.076460351317974,-0.756583877446046
3.636116906045332,-1.3743546332618566,-0.756583877446046
3.636116906045332,-1.076460351317974,-1.3743546332618566
3.636116906045332,-1.076460351317974,-0.756583877446046
-1.076460351317974,-1.3743546332618566,-0.756583877446046
