0,1,2
1.3109853439847319,-0.4056341353763722,0.6817043240026063
1.3109853439847319,-0.4056341353763722,1.9227361252948372
1.3109853439847319,-0.4056341353763722,-2.384391987854745
1.3109853439847319,-0.4056341353763722,3.160833742767921
1.3109853439847319,-0.4056341353763722,0.39960746169207023
1.3109853439847319,-0.4056341353763722,-0.6942763318385075
1.3109853439847319,-0.4056341353763722,-0.37682461247833293
1.3109853439847319,-0.4056341353763722,-1.8226160197762749
1.3109853439847319,0.6817043240026063,1.9227361252948372
1.3109853439847319,0.6817043240026063,-2.384391987854745
1.3109853439847319,0.6817043240026063,3.160833742767921
1.3109853439847319,0.6817043240026063,0.39960746169207023
1.3109853439847319,0.6817043240026063,-0.6942763318385075
1.3109853439847319,0.6817043240026063,-0.37682461247833293
1.3109853439847319,0.6817043240026063,-1.8226160197762749
1.3109853439847319,1.9227361252948372,-2.384391987854745
1.3109853439847319,1.9227361252948372,3.160833742767921
1.3109853439847319,1.9227361252948372,0.39960746169207023
1.3109853439847319,1.9227361252948372,-0.6942763318385075
1.3109853439847319,1.9227361252948372,-0.37682461247833293
1.3109853439847319,1.9227361252948372,-1.8226160197762749
1.3109853439847319,-2.384391987854745,-0.37682461247833293
1.3109853439847319,-2.384391987854745,-1.8226160197762749
1.3109853439847319,-2.384391987854745,3.160833742767921
1.3109853439847319,-2.384391987854745,0.39960746169207023
1.3109853439847319,-2.384391987854745,-0.6942763318385075
1.3109853439847319,3.160833742767921,-0.37682461247833293
1.3109853439847319,3.160833742767921,-1.8226160197762749
1.3109853439847319,3.160833742767921,0.39960746169207023
1.3109853439847319,3.160833742767921,-0.6942763318385075
1.3109853439847319,0.39960746169207023,-0.37682461247833293
1.3109853439847319,0.39960746169207023,-1.8226160197762749
1.3109853439847319,0.39960746169207023,-0.6942763318385075
1.3109853439847319,-0.6942763318385075,-0.37682461247833293
1.3109853439847319,-0.6942763318385075,-1.8226160197762749
1.3109853439847319,-0.37682461247833293,-1.8226160197762749
-0.4056341353763722,0.6817043240026063,1.9227361252948372
-0.4056341353763722,0.6817043240026063,-2.384391987854745
-0.4056341353763722,0.6817043240026063,3.160833742767921
-0.4056341353763722,0.6817043240026063,0.39960746169207023
-0.4056341353763722,0.6817043240026063,-0.6942763318385075
-0.4056341353763722,0.6817043240026063,-0.37682461247833293
-0.4056341353763722,0.6817043240026063,-1.8226160197762749
-0.4056341353763722,1.9227361252948372,-2.384391987854745
-0.4056341353763722,1.9227361252948372,3.160833742767921
-0.4056341353763722,1.9227361252948372,0.39960746169207023
-0.4056341353763722,1.9227361252948372,-0.6942763318385075
-0.4056341353763722,1.9227361252948372,-0.37682461247833293
-0.4056341353763722,1.9227361252948372,-1.8226160197762749
-0.4056341353763722,-2.384391987854745,-0.37682461247833293
-0.4056341353763722,-2.384391987854745,-1.8226160197762749
-0.4056341353763722,-2.384391987854745,3.160833742767921
-0.4056341353763722,-2.384391987854745,0.39960746169207023
-0.4056341353763722,-2.384391987854745,-0.6942763318385075
-0.4056341353763722,3.160833742767921,-0.37682461247833293
-0.4056341353763722,3.160833742767921,-1.8226160197762749
-0.4056341353763722,3.160833742767921,0.39960746169207023
-0.4056341353763722,3.160833742767921,-0.6942763318385075
-0.4056341353763722,0.39960746169207023,-0.37682461247833293
-0.4056341353763722,0.39960746169207023,-1.8226160197762749
-0.4056341353763722,0.39960746169207023,-0.6942763318385075
-0.4056341353763722,-0.6942763318385075,-0.37682461247833293
-0.4056341353763722,-0.6942763318385075,-1.8226160197762749
-0.4056341353763722,-0.37682461247833293,-1.8226160197762749
0.6817043240026063,1.9227361252948372,-2.384391987854745
0.6817043240026063,1.9227361252948372,3.160833742767921
0.6817043240026063,1.9227361252948372,0.39960746169207023
0.6817043240026063,1.9227361252948372,-0.6942763318385075
0.6817043240026063,1.9227361252948372,-0.37682461247833293
0.6817043240026063,1.9227361252948372,-1.8226160197762749
0.6817043240026063,-2.384391987854745,-0.37682461247833293
0.6817043240026063,-2.384391987854745,-1.8226160197762749
0.6817043240026063,-2.384391987854745,3.160833742767921
0.6817043240026063,-2.384391987854745,0.39960746169207023
0.6817043240026063,-2.384391987854745,-0.6942763318385075
0.6817043240026063,3.160833742767921,-0.37682461247833293
0.6817043240026063,3.160833742767921,-1.8226160197762749
0.6817043240026063,3.160833742767921,0.39960746169207023
0.6817043240026063,3.160833742767921,-0.6942763318385075
0.6817043240026063,0.39960746169207023,-0.37682461247833293
0.6817043240026063,0.39960746169207023,-1.8226160197762749
0.6817043240026063,0.39960746169207023,-0.6942763318385075
0.6817043240026063,-0.6942763318385075,-0.37682461247833293
0.6817043240026063,-0.6942763318385075,-1.8226160197762749
0.6817043240026063,-0.37682461247833293,-1.8226160197762749
1.9227361252948372,-2.384391987854745,-0.37682461247833293
1.9227361252948372,-2.384391987854745,-1.8226160197762749
1.9227361252948372,-2.384391987854745,3.160833742767921
1.9227361252948372,-2.384391987854745,0.39960746169207023
1.9227361252948372,-2.384391987854745,-0.6942763318385075
1.9227361252948372,3.160833742767921,-0.37682461247833293
1.9227361252948372,3.160833742767921,-1.8226160197762749
1.9227361252948372,3.160833742767921,0.39960746169207023
1.9227361252948372,3.160833742767921,-0.6942763318385075
1.9227361252948372,0.39960746169207023,-0.37682461247833293
1.9227361252948372,0.39960746169207023,-1.8226160197762749
1.9227361252948372,0.39960746169207023,-0.6942763318385075
1.9227361252948372,-0.6942763318385075,-0.37682461247833293
1.9227361252948372,-0.6942763318385075,-1.8226160197762749
1.9227361252948372,-0.37682461247833293,-1.8226160197762749
-2.384391987854745,-0.37682461247833293,-1.8226160197762749
-2.384391987854745,3.160833742767921,-0.37682461247833293
-2.384391987854745,3.160833742767921,-1.8226160197762749
-2.384391987854745,3.160833742767921,0.39960746169207023
-2.384391987854745,3.160833742767921,-0.6942763318385075
-2.384391987854745,0.39960746169207023,-0.37682461247833293
-2.384391987854745,0.39960746169207023,-1.8226160197762749
-2.384391987854745,0.39960746169207023,-0.6942763318385075
-2.384391987854745,-0.6942763318385075,-0.37682461247833293
-2.384391987854745,-0.6942763318385075,-1.8226160197762749
3.160833742767921,-0.37682461247833293,-1.8226160197762749
3.160833742767921,0.39960746169207023,-0.37682461247833293
3.160833742767921,0.39960746169207023,-1.8226160197762749
3.160833742767921,0.39960746169207023,-0.6942763318385075
3.160833742767921,-0.6942763318385075,-0.37682461247833293
3.160833742767921,-0.6942763318385075,-1.8226160197762749
0.39960746169207023,-0.37682461247833293,-1.8226160197762749
0.39960746169207023,-0.6942763318385075,-0.37682461247833293
0.39960746169207023,-0.6942763318385075,-1.8226160197762749
-0.6942763318385075,-0.37682461247833293,-1.8226160197762749
