0,1,2
2.53364011606515,-0.055328384783023,0.0856151017817008
2.53364011606515,-0.055328384783023,-0.028439471619923766
2.53364011606515,-0.055328384783023,3.0473795634553498
2.53364011606515,-0.055328384783023,-1.1589769484942887
2.53364011606515,-0.055328384783023,-1.0237004963974676
2.53364011606515,-0.055328384783023,-0.05382318876395105
2.53364011606515,-0.055328384783023,1.1570843887070232
2.53364011606515,-0.055328384783023,0.5855153411327023
2.53364011606515,0.0856151017817008,-0.028439471619923766
2.53364011606515,0.0856151017817008,3.0473795634553498
2.53364011606515,0.0856151017817008,-1.1589769484942887
2.53364011606515,0.0856151017817008,-1.0237004963974676
2.53364011606515,0.0856151017817008,-0.05382318876395105
2.53364011606515,0.0856151017817008,1.1570843887070232
2.53364011606515,0.0856151017817008,0.5855153411327023
2.53364011606515,-0.028439471619923766,3.0473795634553498
2.53364011606515,-0.028439471619923766,-1.1589769484942887
2.53364011606515,-0.028439471619923766,-1.0237004963974676
2.53364011606515,-0.028439471619923766,-0.05382318876395105
2.53364011606515,-0.028439471619923766,1.1570843887070232
2.53364011606515,-0.028439471619923766,0.5855153411327023
2.53364011606515,3.0473795634553498,1.1570843887070232
2.53364011606515,3.0473795634553498,0.5855153411327023
2.53364011606515,3.0473795634553498,-1.1589769484942887
2.53364011606515,3.0473795634553498,-1.0237004963974676
2.53364011606515,3.0473795634553498,-0.05382318876395105
2.53364011606515,-1.1589769484942887,1.1570843887070232
2.53364011606515,-1.1589769484942887,0.5855153411327023
2.53364011606515,-1.1589769484942887,-1.0237004963974676
2.53364011606515,-1.1589769484942887,-0.05382318876395105
2.53364011606515,-1.0237004963974676,1.1570843887070232
2.53364011606515,-1.0237004963974676,0.5855153411327023
2.53364011606515,-1.0237004963974676,-0.05382318876395105
2.53364011606515,-0.05382318876395105,1.1570843887070232
2.53364011606515,-0.05382318876395105,0.5855153411327023
2.53364011606515,1.1570843887070232,0.5855153411327023
-0.055328384783023,0.0856151017817008,-0.028439471619923766
-0.055328384783023,0.0856151017817008,3.0473795634553498
-0.055328384783023,0.0856151017817008,-1.1589769484942887
-0.055328384783023,0.0856151017817008,-1.0237004963974676
-0.055328384783023,0.0856151017817008,-0.05382318876395105
-0.055328384783023,0.0856151017817008,1.1570843887070232
-0.055328384783023,0.0856151017817008,0.5855153411327023
-0.055328384783023,-0.028439471619923766,3.0473795634553498
-0.055328384783023,-0.028439471619923766,-1.1589769484942887
-0.055328384783023,-0.028439471619923766,-1.0237004963974676
-0.055328384783023,-0.028439471619923766,-0.05382318876395105
-0.055328384783023,-0.028439471619923766,1.1570843887070232
-0.055328384783023,-0.028439471619923766,0.5855153411327023
-0.055328384783023,3.0473795634553498,1.1570843887070232
-0.055328384783023,3.0473795634553498,0.5855153411327023
-0.055328384783023,3.0473795634553498,-1.1589769484942887
-0.055328384783023,3.0473795634553498,-1.0237004963974676
-0.055328384783023,3.0473795634553498,-0.05382318876395105
-0.055328384783023,-1.1589769484942887,1.1570843887070232
-0.055328384783023,-1.1589769484942887,0.5855153411327023
-0.055328384783023,-1.1589769484942887,-1.0237004963974676
-0.055328384783023,-1.1589769484942887,-0.05382318876395105
-0.055328384783023,-1.0237004963974676,1.1570843887070232
-0.055328384783023,-1.0237004963974676,0.5855153411327023
-0.055328384783023,-1.0237004963974676,-0.05382318876395105
-0.055328384783023,-0.05382318876395105,1.1570843887070232
-0.055328384783023,-0.05382318876395105,0.5855153411327023
-0.055328384783023,1.1570843887070232,0.5855153411327023
0.0856151017817008,-0.028439471619923766,3.0473795634553498
0.0856151017817008,-0.028439471619923766,-1.1589769484942887
0.0856151017817008,-0.028439471619923766,-1.0237004963974676
0.0856151017817008,-0.028439471619923766,-0.05382318876395105
0.0856151017817008,-0.028439471619923766,1.1570843887070232
0.0856151017817008,-0.028439471619923766,0.5855153411327023
0.0856151017817008,3.0473795634553498,1.1570843887070232
0.0856151017817008,3.0473795634553498,0.5855153411327023
0.0856151017817008,3.0473795634553498,-1.1589769484942887
0.0856151017817008,3.0473795634553498,-1.0237004963974676
0.0856151017817008,3.0473795634553498,-0.05382318876395105
0.0856151017817008,-1.1589769484942887,1.1570843887070232
0.0856151017817008,-1.1589769484942887,0.5855153411327023
0.0856151017817008,-1.1589769484942887,-1.0237004963974676
0.0856151017817008,-1.1589769484942887,-0.05382318876395105
0.0856151017817008,-1.0237004963974676,1.1570843887070232
0.0856151017817008,-1.0237004963974676,0.5855153411327023
0.0856151017817008,-1.0237004963974676,-0.05382318876395105
0.0856151017817008,-0.05382318876395105,1.1570843887070232
0.0856151017817008,-0.05382318876395105,0.5855153411327023
0.0856151017817008,1.1570843887070232,0.5855153411327023
-0.028439471619923766,3.0473795634553498,1.1570843887070232
-0.028439471619923766,3.0473795634553498,0.5855153411327023
-0.028439471619923766,3.0473795634553498,-1.1589769484942887
-0.028439471619923766,3.0473795634553498,-1.0237004963974676
-0.028439471619923766,3.0473795634553498,-0.05382318876395105
-0.028439471619923766,-1.1589769484942887,1.1570843887070232
-0.028439471619923766,-1.1589769484942887,0.5855153411327023
-0.028439471619923766,-1.1589769484942887,-1.0237004963974676
-0.028439471619923766,-1.1589769484942887,-0.05382318876395105
-0.028439471619923766,-1.0237004963974676,1.1570843887070232
-0.028439471619923766,-1.0237004963974676,0.5855153411327023
-0.028439471619923766,-1.0237004963974676,-0.05382318876395105
-0.028439471619923766,-0.05382318876395105,1.1570843887070232
-0.028439471619923766,-0.05382318876395105,0.5855153411327023
-0.028439471619923766,1.1570843887070232,0.5855153411327023
3.0473795634553498,1.1570843887070232,0.5855153411327023
3.0473795634553498,-1.1589769484942887,1.1570843887070232
3.0473795634553498,-1.1589769484942887,0.5855153411327023
3.0473795634553498,-1.1589769484942887,-1.0237004963974676
3.0473795634553498,-1.1589769484942887,-0.05382318876395105
3.0473795634553498,-1.0237004963974676,1.1570843887070232
3.0473795634553498,-1.0237004963974676,0.5855153411327023
3.0473795634553498,-1.0237004963974676,-0.05382318876395105
3.0473795634553498,-0.05382318876395105,1.1570843887070232
3.0473795634553498,-0.05382318876395105,0.5855153411327023
-1.1589769484942887,1.1570843887070232,0.5855153411327023
-1.1589769484942887,-1.0237004963974676,1.1570843887070232
-1.1589769484942887,-1.0237004963974676,0.5855153411327023
-1.1589769484942887,-1.0237004963974676,-0.05382318876395105
-1.1589769484942887,-0.05382318876395105,1.1570843887070232
-1.1589769484942887,-0.05382318876395105,0.5855153411327023
-1.0237004963974676,1.1570843887070232,0.5855153411327023
-1.0237004963974676,-0.05382318876395105,1.1570843887070232
-1.0237004963974676,-0.05382318876395105,0.5855153411327023
-0.05382318876395105,1.1570843887070232,0.5855153411327023
