0,1,2
0.09438821677236675,-4.5250268517268095,2.3866549025310513
0.09438821677236675,-4.5250268517268095,-2.73035067525947
0.09438821677236675,-4.5250268517268095,1.8290595444155526
0.09438821677236675,-4.5250268517268095,-2.517417635348854
0.09438821677236675,-4.5250268517268095,-1.6953319148144281
0.09438821677236675,-4.5250268517268095,1.2937992527476012
0.09438821677236675,-4.5250268517268095,-3.1783962761874864
0.09438821677236675,-4.5250268517268095,-4.173448000330579
0.09438821677236675,2.3866549025310513,-2.73035067525947
0.09438821677236675,2.3866549025310513,1.8290595444155526
0.09438821677236675,2.3866549025310513,-2.517417635348854
0.09438821677236675,2.3866549025310513,-1.6953319148144281
0.09438821677236675,2.3866549025310513,1.2937992527476012
0.09438821677236675,2.3866549025310513,-3.1783962761874864
0.09438821677236675,2.3866549025310513,-4.173448000330579
0.09438821677236675,-2.73035067525947,1.8290595444155526
0.09438821677236675,-2.73035067525947,-2.517417635348854
0.09438821677236675,-2.73035067525947,-1.6953319148144281
0.09438821677236675,-2.73035067525947,1.2937992527476012
0.09438821677236675,-2.73035067525947,-3.1783962761874864
0.09438821677236675,-2.73035067525947,-4.173448000330579
0.09438821677236675,1.8290595444155526,-3.1783962761874864
0.09438821677236675,1.8290595444155526,-4.173448000330579
0.09438821677236675,1.8290595444155526,-2.517417635348854
0.09438821677236675,1.8290595444155526,-1.6953319148144281
0.09438821677236675,1.8290595444155526,1.2937992527476012
0.09438821677236675,-2.517417635348854,-3.1783962761874864
0.09438821677236675,-2.517417635348854,-4.173448000330579
0.09438821677236675,-2.517417635348854,-1.6953319148144281
0.09438821677236675,-2.517417635348854,1.2937992527476012
0.09438821677236675,-1.6953319148144281,-3.1783962761874864
0.09438821677236675,-1.6953319148144281,-4.173448000330579
0.09438821677236675,-1.6953319148144281,1.2937992527476012
0.09438821677236675,1.2937992527476012,-3.1783962761874864
0.09438821677236675,1.2937992527476012,-4.173448000330579
0.09438821677236675,-3.1783962761874864,-4.173448000330579
-4.5250268517268095,2.3866549025310513,-2.73035067525947
-4.5250268517268095,2.3866549025310513,1.8290595444155526
-4.5250268517268095,2.3866549025310513,-2.517417635348854
-4.5250268517268095,2.3866549025310513,-1.6953319148144281
-4.5250268517268095,2.3866549025310513,1.2937992527476012
-4.5250268517268095,2.3866549025310513,-3.1783962761874864
-4.5250268517268095,2.3866549025310513,-4.173448000330579
-4.5250268517268095,-2.73035067525947,1.8290595444155526
-4.5250268517268095,-2.73035067525947,-2.517417635348854
-4.5250268517268095,-2.73035067525947,-1.6953319148144281
-4.5250268517268095,-2.73035067525947,1.2937992527476012
-4.5250268517268095,-2.73035067525947,-3.1783962761874864
-4.5250268517268095,-2.73035067525947,-4.173448000330579
-4.5250268517268095,1.8290595444155526,-3.1783962761874864
-4.5250268517268095,1.8290595444155526,-4.173448000330579
-4.5250268517268095,1.8290595444155526,-2.517417635348854
-4.5250268517268095,1.8290595444155526,-1.6953319148144281
-4.5250268517268095,1.8290595444155526,1.2937992527476012
-4.5250268517268095,-2.517417635348854,-3.1783962761874864
-4.5250268517268095,-2.517417635348854,-4.173448000330579
-4.5250268517268095,-2.517417635348854,-1.6953319148144281
-4.5250268517268095,-2.517417635348854,1.2937992527476012
-4.5250268517268095,-1.6953319148144281,-3.1783962761874864
-4.5250268517268095,-1.6953319148144281,-4.173448000330579
-4.5250268517268095,-1.6953319148144281,1.2937992527476012
-4.5250268517268095,1.2937992527476012,-3.1783962761874864
-4.5250268517268095,1.2937992527476012,-4.173448000330579
-4.5250268517268095,-3.1783962761874864,-4.173448000330579
2.3866549025310513,-2.73035067525947,1.8290595444155526
2.3866549025310513,-2.73035067525947,-2.517417635348854
2.3866549025310513,-2.73035067525947,-1.6953319148144281
2.3866549025310513,-2.73035067525947,1.2937992527476012
2.3866549025310513,-2.73035067525947,-3.1783962761874864
2.3866549025310513,-2.73035067525947,-4.173448000330579
2.3866549025310513,1.8290595444155526,-3.1783962761874864
2.3866549025310513,1.8290595444155526,-4.173448000330579
2.3866549025310513,1.8290595444155526,-2.517417635348854
2.3866549025310513,1.8290595444155526,-1.6953319148144281
2.3866549025310513,1.8290595444155526,1.2937992527476012
2.3866549025310513,-2.517417635348854,-3.1783962761874864
2.3866549025310513,-2.517417635348854,-4.173448000330579
2.3866549025310513,-2.517417635348854,-1.6953319148144281
2.3866549025310513,-2.517417635348854,1.2937992527476012
2.3866549025310513,-1.6953319148144281,-3.1783962761874864
2.3866549025310513,-1.6953319148144281,-4.173448000330579
2.3866549025310513,-1.6953319148144281,1.2937992527476012
2.3866549025310513,1.2937992527476012,-3.1783962761874864
2.3866549025310513,1.2937992527476012,-4.173448000330579
2.3866549025310513,-3.1783962761874864,-4.173448000330579
-2.73035067525947,1.8290595444155526,-3.1783962761874864
-2.73035067525947,1.8290595444155526,-4.173448000330579
-2.73035067525947,1.8290595444155526,-2.517417635348854
-2.73035067525947,1.8290595444155526,-1.6953319148144281
-2.73035067525947,1.8290595444155526,1.2937992527476012
-2.73035067525947,-2.517417635348854,-3.1783962761874864
-2.73035067525947,-2.517417635348854,-4.173448000330579
-2.73035067525947,-2.517417635348854,-1.6953319148144281
-2.73035067525947,-2.517417635348854,1.2937992527476012
-2.73035067525947,-1.6953319148144281,-3.1783962761874864
-2.73035067525947,-1.6953319148144281,-4.173448000330579
-2.73035067525947,-1.6953319148144281,1.2937992527476012
-2.73035067525947,1.2937992527476012,-3.1783962761874864
-2.73035067525947,1.2937992527476012,-4.173448000330579
-2.73035067525947,-3.1783962761874864,-4.173448000330579
1.8290595444155526,-3.1783962761874864,-4.173448000330579
1.8290595444155526,-2.517417635348854,-3.1783962761874864
1.8290595444155526,-2.517417635348854,-4.173448000330579
1.8290595444155526,-2.517417635348854,-1.6953319148144281
1.8290595444155526,-2.517417635348854,1.2937992527476012
1.8290595444155526,-1.6953319148144281,-3.1783962761874864
1.8290595444155526,-1.6953319148144281,-4.173448000330579
1.8290595444155526,-1.6953319148144281,1.2937992527476012
1.8290595444155526,1.2937992527476012,-3.1783962761874864
1.8290595444155526,1.2937992527476012,-4.173448000330579
-2.517417635348854,-3.1783962761874864,-4.173448000330579
-2.517417635348854,-1.6953319148144281,-3.1783962761874864
-2.517417635348854,-1.6953319148144281,-4.173448000330579
-2.517417635348854,-1.6953319148144281,1.2937992527476012
-2.517417635348854,1.2937992527476012,-3.1783962761874864
-2.517417635348854,1.2937992527476012,-4.173448000330579
-1.6953319148144281,-3.1783962761874864,-4.173448000330579
-1.6953319148144281,1.2937992527476012,-3.1783962761874864
-1.6953319148144281,1.2937992527476012,-4.173448000330579
1.2937992527476012,-3.1783962761874864,-4.173448000330579
