0,1,2
0.014802568063330768,0.5949752287878634,-0.15393999853936624
0.014802568063330768,0.5949752287878634,-1.7157208936334076
0.014802568063330768,0.5949752287878634,-1.214789034001459
0.014802568063330768,0.5949752287878634,-0.8106360844413016
0.014802568063330768,0.5949752287878634,0.7234124190459533
0.014802568063330768,0.5949752287878634,0.35734533796021295
0.014802568063330768,0.5949752287878634,0.6409131271389066
0.014802568063330768,0.5949752287878634,0.6712703382475415
0.014802568063330768,-0.15393999853936624,-1.7157208936334076
0.014802568063330768,-0.15393999853936624,-1.214789034001459
0.014802568063330768,-0.15393999853936624,-0.8106360844413016
0.014802568063330768,-0.15393999853936624,0.7234124190459533
0.014802568063330768,-0.15393999853936624,0.35734533796021295
0.014802568063330768,-0.15393999853936624,0.6409131271389066
0.014802568063330768,-0.15393999853936624,0.6712703382475415
0.014802568063330768,-1.7157208936334076,-1.214789034001459
0.014802568063330768,-1.7157208936334076,-0.8106360844413016
0.014802568063330768,-1.7157208936334076,0.7234124190459533
0.014802568063330768,-1.7157208936334076,0.35734533796021295
0.014802568063330768,-1.7157208936334076,0.6409131271389066
0.014802568063330768,-1.7157208936334076,0.6712703382475415
0.014802568063330768,-1.214789034001459,0.6409131271389066
0.014802568063330768,-1.214789034001459,0.6712703382475415
0.014802568063330768,-1.214789034001459,-0.8106360844413016
0.014802568063330768,-1.214789034001459,0.7234124190459533
0.014802568063330768,-1.214789034001459,0.35734533796021295
0.014802568063330768,-0.8106360844413016,0.6409131271389066
0.014802568063330768,-0.8106360844413016,0.6712703382475415
0.014802568063330768,-0.8106360844413016,0.7234124190459533
0.014802568063330768,-0.8106360844413016,0.35734533796021295
0.014802568063330768,0.7234124190459533,0.6409131271389066
0.014802568063330768,0.7234124190459533,0.6712703382475415
0.014802568063330768,0.7234124190459533,0.35734533796021295
0.014802568063330768,0.35734533796021295,0.6409131271389066
0.014802568063330768,0.35734533796021295,0.6712703382475415
0.014802568063330768,0.6409131271389066,0.6712703382475415
0.5949752287878634,-0.15393999853936624,-1.7157208936334076
0.5949752287878634,-0.15393999853936624,-1.214789034001459
0.5949752287878634,-0.15393999853936624,-0.8106360844413016
0.5949752287878634,-0.15393999853936624,0.7234124190459533
0.5949752287878634,-0.15393999853936624,0.35734533796021295
0.5949752287878634,-0.15393999853936624,0.6409131271389066
0.5949752287878634,-0.15393999853936624,0.6712703382475415
0.5949752287878634,-1.7157208936334076,-1.214789034001459
0.5949752287878634,-1.7157208936334076,-0.8106360844413016
0.5949752287878634,-1.7157208936334076,0.7234124190459533
0.5949752287878634,-1.7157208936334076,0.35734533796021295
0.5949752287878634,-1.7157208936334076,0.6409131271389066
0.5949752287878634,-1.7157208936334076,0.6712703382475415
0.5949752287878634,-1.214789034001459,0.6409131271389066
0.5949752287878634,-1.214789034001459,0.6712703382475415
0.5949752287878634,-1.214789034001459,-0.8106360844413016
0.5949752287878634,-1.214789034001459,0.7234124190459533
0.5949752287878634,-1.214789034001459,0.35734533796021295
0.5949752287878634,-0.8106360844413016,0.6409131271389066
0.5949752287878634,-0.8106360844413016,0.6712703382475415
0.5949752287878634,-0.8106360844413016,0.7234124190459533
0.5949752287878634,-0.8106360844413016,0.35734533796021295
0.5949752287878634,0.7234124190459533,0.6409131271389066
0.5949752287878634,0.7234124190459533,0.6712703382475415
0.5949752287878634,0.7234124190459533,0.35734533796021295
0.5949752287878634,0.35734533796021295,0.6409131271389066
0.5949752287878634,0.35734533796021295,0.6712703382475415
0.5949752287878634,0.6409131271389066,0.6712703382475415
-0.15393999853936624,-1.7157208936334076,-1.214789034001459
-0.15393999853936624,-1.7157208936334076,-0.8106360844413016
-0.15393999853936624,-1.7157208936334076,0.7234124190459533
-0.15393999853936624,-1.7157208936334076,0.35734533796021295
-0.15393999853936624,-1.7157208936334076,0.6409131271389066
-0.15393999853936624,-1.7157208936334076,0.6712703382475415
-0.15393999853936624,-1.214789034001459,0.6409131271389066
-0.15393999853936624,-1.214789034001459,0.6712703382475415
-0.15393999853936624,-1.214789034001459,-0.8106360844413016
-0.15393999853936624,-1.214789034001459,0.7234124190459533
-0.15393999853936624,-1.214789034001459,0.35734533796021295
-0.15393999853936624,-0.8106360844413016,0.6409131271389066
-0.15393999853936624,-0.8106360844413016,0.6712703382475415
-0.15393999853936624,-0.8106360844413016,0.7234124190459533
-0.15393999853936624,-0.8106360844413016,0.35734533796021295
-0.15393999853936624,0.7234124190459533,0.6409131271389066
-0.15393999853936624,0.7234124190459533,0.6712703382475415
-0.15393999853936624,0.7234124190459533,0.35734533796021295
-0.15393999853936624,0.35734533796021295,0.6409131271389066
-0.15393999853936624,0.35734533796021295,0.6712703382475415
-0.15393999853936624,0.6409131271389066,0.6712703382475415
-1.7157208936334076,-1.214789034001459,0.6409131271389066
-1.7157208936334076,-1.214789034001459,0.6712703382475415
-1.7157208936334076,-1.214789034001459,-0.8106360844413016
-1.7157208936334076,-1.214789034001459,0.7234124190459533
-1.7157208936334076,-1.214789034001459,0.35734533796021295
-1.7157208936334076,-0.8106360844413016,0.6409131271389066
-1.7157208936334076,-0.8106360844413016,0.6712703382475415
-1.7157208936334076,-0.8106360844413016,0.7234124190459533
-1.7157208936334076,-0.8106360844413016,0.35734533796021295
-1.7157208936334076,0.7234124190459533,0.6409131271389066
-1.7157208936334076,0.7234124190459533,0.6712703382475415
-1.7157208936334076,0.7234124190459533,0.35734533796021295
-1.7157208936334076,0.35734533796021295,0.6409131271389066
-1.7157208936334076,0.35734533796021295,0.6712703382475415
-1.7157208936334076,0.6409131271389066,0.6712703382475415
-1.214789034001459,0.6409131271389066,0.6712703382475415
-1.214789034001459,-0.8106360844413016,0.6409131271389066
-1.214789034001459,-0.8106360844413016,0.6712703382475415
-1.214789034001459,-0.8106360844413016,0.7234124190459533
-1.214789034001459,-0.8106360844413016,0.35734533796021295
-1.214789034001459,0.7234124190459533,0.6409131271389066
-1.214789034001459,0.7234124190459533,0.6712703382475415
-1.214789034001459,0.7234124190459533,0.35734533796021295
-1.214789034001459,0.35734533796021295,0.6409131271389066
-1.214789034001459,0.35734533796021295,0.6712703382475415
-0.8106360844413016,0.6409131271389066,0.6712703382475415
-0.8106360844413016,0.7234124190459533,0.6409131271389066
-0.8106360844413016,0.7234124190459533,0.6712703382475415
-0.8106360844413016,0.7234124190459533,0.35734533796021295
-0.8106360844413016,0.35734533796021295,0.6409131271389066
-0.8106360844413016,0.35734533796021295,0.6712703382475415
0.7234124190459533,0.6409131271389066,0.6712703382475415
0.7234124190459533,0.35734533796021295,0.6409131271389066
0.7234124190459533,0.35734533796021295,0.6712703382475415
0.35734533796021295,0.6409131271389066,0.6712703382475415
