0,1,2
3.3673089069964233,2.127151036944795,-2.258986078431565
3.3673089069964233,2.127151036944795,1.869523696752628
3.3673089069964233,2.127151036944795,-2.6313875865395686
3.3673089069964233,2.127151036944795,-3.0411012516708533
3.3673089069964233,2.127151036944795,-0.7658051260409787
3.3673089069964233,2.127151036944795,-0.5153883228342406
3.3673089069964233,2.127151036944795,1.6262648351018592
3.3673089069964233,2.127151036944795,0.6612341011548455
3.3673089069964233,-2.258986078431565,1.869523696752628
3.3673089069964233,-2.258986078431565,-2.6313875865395686
3.3673089069964233,-2.258986078431565,-3.0411012516708533
3.3673089069964233,-2.258986078431565,-0.7658051260409787
3.3673089069964233,-2.258986078431565,-0.5153883228342406
3.3673089069964233,-2.258986078431565,1.6262648351018592
3.3673089069964233,-2.258986078431565,0.6612341011548455
3.3673089069964233,1.869523696752628,-2.6313875865395686
3.3673089069964233,1.869523696752628,-3.0411012516708533
3.3673089069964233,1.869523696752628,-0.7658051260409787
3.3673089069964233,1.869523696752628,-0.5153883228342406
3.3673089069964233,1.869523696752628,1.6262648351018592
3.3673089069964233,1.869523696752628,0.6612341011548455
3.3673089069964233,-2.6313875865395686,1.6262648351018592
3.3673089069964233,-2.6313875865395686,0.6612341011548455
3.3673089069964233,-2.6313875865395686,-3.0411012516708533
3.3673089069964233,-2.6313875865395686,-0.7658051260409787
3.3673089069964233,-2.6313875865395686,-0.5153883228342406
3.3673089069964233,-3.0411012516708533,1.6262648351018592
3.3673089069964233,-3.0411012516708533,0.6612341011548455
3.3673089069964233,-3.0411012516708533,-0.7658051260409787
3.3673089069964233,-3.0411012516708533,-0.5153883228342406
3.3673089069964233,-0.7658051260409787,1.6262648351018592
3.3673089069964233,-0.7658051260409787,0.6612341011548455
3.3673089069964233,-0.7658051260409787,-0.5153883228342406
3.3673089069964233,-0.5153883228342406,1.6262648351018592
3.3673089069964233,-0.5153883228342406,0.6612341011548455
3.3673089069964233,1.6262648351018592,0.6612341011548455
2.127151036944795,-2.258986078431565,1.869523696752628
2.127151036944795,-2.258986078431565,-2.6313875865395686
2.127151036944795,-2.258986078431565,-3.0411012516708533
2.127151036944795,-2.258986078431565,-0.7658051260409787
2.127151036944795,-2.258986078431565,-0.5153883228342406
2.127151036944795,-2.258986078431565,1.6262648351018592
2.127151036944795,-2.258986078431565,0.6612341011548455
2.127151036944795,1.869523696752628,-2.6313875865395686
2.127151036944795,1.869523696752628,-3.0411012516708533
2.127151036944795,1.869523696752628,-0.7658051260409787
2.127151036944795,1.869523696752628,-0.5153883228342406
2.127151036944795,1.869523696752628,1.6262648351018592
2.127151036944795,1.869523696752628,0.6612341011548455
2.127151036944795,-2.6313875865395686,1.6262648351018592
2.127151036944795,-2.6313875865395686,0.6612341011548455
2.127151036944795,-2.6313875865395686,-3.0411012516708533
2.127151036944795,-2.6313875865395686,-0.7658051260409787
2.127151036944795,-2.6313875865395686,-0.5153883228342406
2.127151036944795,-3.0411012516708533,1.6262648351018592
2.127151036944795,-3.0411012516708533,0.6612341011548455
2.127151036944795,-3.0411012516708533,-0.7658051260409787
2.127151036944795,-3.0411012516708533,-0.5153883228342406
2.127151036944795,-0.7658051260409787,1.6262648351018592
2.127151036944795,-0.7658051260409787,0.6612341011548455
2.127151036944795,-0.7658051260409787,-0.5153883228342406
2.127151036944795,-0.5153883228342406,1.6262648351018592
2.127151036944795,-0.5153883228342406,0.6612341011548455
2.127151036944795,1.6262648351018592,0.6612341011548455
-2.258986078431565,1.869523696752628,-2.6313875865395686
-2.258986078431565,1.869523696752628,-3.0411012516708533
-2.258986078431565,1.869523696752628,-0.7658051260409787
-2.258986078431565,1.869523696752628,-0.5153883228342406
-2.258986078431565,1.869523696752628,1.6262648351018592
-2.258986078431565,1.869523696752628,0.6612341011548455
-2.258986078431565,-2.6313875865395686,1.6262648351018592
-2.258986078431565,-2.6313875865395686,0.6612341011548455
-2.258986078431565,-2.6313875865395686,-3.0411012516708533
-2.258986078431565,-2.6313875865395686,-0.7658051260409787
-2.258986078431565,-2.6313875865395686,-0.5153883228342406
-2.258986078431565,-3.0411012516708533,1.6262648351018592
-2.258986078431565,-3.0411012516708533,0.6612341011548455
-2.258986078431565,-3.0411012516708533,-0.7658051260409787
-2.258986078431565,-3.0411012516708533,-0.5153883228342406
-2.258986078431565,-0.7658051260409787,1.6262648351018592
-2.258986078431565,-0.7658051260409787,0.6612341011548455
-2.258986078431565,-0.7658051260409787,-0.5153883228342406
-2.258986078431565,-0.5153883228342406,1.6262648351018592
-2.258986078431565,-0.5153883228342406,0.6612341011548455
-2.258986078431565,1.6262648351018592,0.6612341011548455
1.869523696752628,-2.6313875865395686,1.6262648351018592
1.869523696752628,-2.6313875865395686,0.6612341011548455
1.869523696752628,-2.6313875865395686,-3.0411012516708533
1.869523696752628,-2.6313875865395686,-0.7658051260409787
1.869523696752628,-2.6313875865395686,-0.5153883228342406
1.869523696752628,-3.0411012516708533,1.6262648351018592
1.869523696752628,-3.0411012516708533,0.6612341011548455
1.869523696752628,-3.0411012516708533,-0.7658051260409787
1.869523696752628,-3.0411012516708533,-0.5153883228342406
1.869523696752628,-0.7658051260409787,1.6262648351018592
1.869523696752628,-0.7658051260409787,0.6612341011548455
1.869523696752628,-0.7658051260409787,-0.5153883228342406
1.869523696752628,-0.5153883228342406,1.6262648351018592
1.869523696752628,-0.5153883228342406,0.6612341011548455
1.869523696752628,1.6262648351018592,0.6612341011548455
-2.6313875865395686,1.6262648351018592,0.6612341011548455
-2.6313875865395686,-3.0411012516708533,1.6262648351018592
-2.6313875865395686,-3.0411012516708533,0.6612341011548455
-2.6313875865395686,-3.0411012516708533,-0.7658051260409787
-2.6313875865395686,-3.0411012516708533,-0.5153883228342406
-2.6313875865395686,-0.7658051260409787,1.6262648351018592
-2.6313875865395686,-0.7658051260409787,0.6612341011548455
-2.6313875865395686,-0.7658051260409787,-0.5153883228342406
-2.6313875865395686,-0.5153883228342406,1.6262648351018592
-2.6313875865395686,-0.5153883228342406,0.6612341011548455
-3.0411012516708533,1.6262648351018592,0.6612341011548455
-3.0411012516708533,-0.7658051260409787,1.6262648351018592
-3.0411012516708533,-0.7658051260409787,0.6612341011548455
-3.0411012516708533,-0.7658051260409787,-0.5153883228342406
-3.0411012516708533,-0.5153883228342406,1.6262648351018592
-3.0411012516708533,-0.5153883228342406,0.6612341011548455
-0.7658051260409787,1.6262648351018592,0.6612341011548455
-0.7658051260409787,-0.5153883228342406,1.6262648351018592
-0.7658051260409787,-0.5153883228342406,0.6612341011548455
-0.5153883228342406,1.6262648351018592,0.6612341011548455
