0,1,2
-0.6277508762418782,1.8856267682597594,-0.6324249317405023
-0.6277508762418782,1.8856267682597594,-1.4312125547869246
-0.6277508762418782,1.8856267682597594,0.5395384646676542
-0.6277508762418782,1.8856267682597594,-0.22290059232056228
-0.6277508762418782,1.8856267682597594,-2.6622062131641737
-0.6277508762418782,1.8856267682597594,-1.0892295525840603
-0.6277508762418782,1.8856267682597594,3.2645420519326627
-0.6277508762418782,1.8856267682597594,0.3530990254458743
-0.6277508762418782,-0.6324249317405023,-1.4312125547869246
-0.6277508762418782,-0.6324249317405023,0.5395384646676542
-0.6277508762418782,-0.6324249317405023,-0.22290059232056228
-0.6277508762418782,-0.6324249317405023,-2.6622062131641737
-0.6277508762418782,-0.6324249317405023,-1.0892295525840603
-0.6277508762418782,-0.6324249317405023,3.2645420519326627
-0.6277508762418782,-0.6324249317405023,0.3530990254458743
-0.6277508762418782,-1.4312125547869246,0.5395384646676542
-0.6277508762418782,-1.4312125547869246,-0.22290059232056228
-0.6277508762418782,-1.4312125547869246,-2.6622062131641737
-0.6277508762418782,-1.4312125547869246,-1.0892295525840603
-0.6277508762418782,-1.4312125547869246,3.2645420519326627
-0.6277508762418782,-1.4312125547869246,0.3530990254458743
-0.6277508762418782,0.5395384646676542,3.2645420519326627
-0.6277508762418782,0.5395384646676542,0.3530990254458743
-0.6277508762418782,0.5395384646676542,-0.22290059232056228
-0.6277508762418782,0.5395384646676542,-2.6622062131641737
-0.6277508762418782,0.5395384646676542,-1.0892295525840603
-0.6277508762418782,-0.22290059232056228,3.2645420519326627
-0.6277508762418782,-0.22290059232056228,0.3530990254458743
-0.6277508762418782,-0.22290059232056228,-2.6622062131641737
-0.6277508762418782,-0.22290059232056228,-1.0892295525840603
-0.6277508762418782,-2.6622062131641737,3.2645420519326627
-0.6277508762418782,-2.6622062131641737,0.3530990254458743
-0.6277508762418782,-2.6622062131641737,-1.0892295525840603
-0.6277508762418782,-1.0892295525840603,3.2645420519326627
-0.6277508762418782,-1.0892295525840603,0.3530990254458743
-0.6277508762418782,3.2645420519326627,0.3530990254458743
1.8856267682597594,-0.6324249317405023,-1.4312125547869246
1.8856267682597594,-0.6324249317405023,0.5395384646676542
1.8856267682597594,-0.6324249317405023,-0.22290059232056228
1.8856267682597594,-0.6324249317405023,-2.6622062131641737
1.8856267682597594,-0.6324249317405023,-1.0892295525840603
1.8856267682597594,-0.6324249317405023,3.2645420519326627
1.8856267682597594,-0.6324249317405023,0.3530990254458743
1.8856267682597594,-1.4312125547869246,0.5395384646676542
1.8856267682597594,-1.4312125547869246,-0.22290059232056228
1.8856267682597594,-1.4312125547869246,-2.6622062131641737
1.8856267682597594,-1.4312125547869246,-1.0892295525840603
1.8856267682597594,-1.4312125547869246,3.2645420519326627
1.8856267682597594,-1.4312125547869246,0.3530990254458743
1.8856267682597594,0.5395384646676542,3.2645420519326627
1.8856267682597594,0.5395384646676542,0.3530990254458743
1.8856267682597594,0.5395384646676542,-0.22290059232056228
1.8856267682597594,0.5395384646676542,-2.6622062131641737
1.8856267682597594,0.5395384646676542,-1.0892295525840603
1.8856267682597594,-0.22290059232056228,3.2645420519326627
1.8856267682597594,-0.22290059232056228,0.3530990254458743
1.8856267682597594,-0.22290059232056228,-2.6622062131641737
1.8856267682597594,-0.22290059232056228,-1.0892295525840603
1.8856267682597594,-2.6622062131641737,3.2645420519326627
1.8856267682597594,-2.6622062131641737,0.3530990254458743
1.8856267682597594,-2.6622062131641737,-1.0892295525840603
1.8856267682597594,-1.0892295525840603,3.2645420519326627
1.8856267682597594,-1.0892295525840603,0.3530990254458743
1.8856267682597594,3.2645420519326627,0.3530990254458743
-0.6324249317405023,-1.4312125547869246,0.5395384646676542
-0.6324249317405023,-1.4312125547869246,-0.22290059232056228
-0.6324249317405023,-1.4312125547869246,-2.6622062131641737
-0.6324249317405023,-1.4312125547869246,-1.0892295525840603
-0.6324249317405023,-1.4312125547869246,3.2645420519326627
-0.6324249317405023,-1.4312125547869246,0.3530990254458743
-0.6324249317405023,0.5395384646676542,3.2645420519326627
-0.6324249317405023,0.5395384646676542,0.3530990254458743
-0.6324249317405023,0.5395384646676542,-0.22290059232056228
-0.6324249317405023,0.5395384646676542,-2.6622062131641737
-0.6324249317405023,0.5395384646676542,-1.0892295525840603
-0.6324249317405023,-0.22290059232056228,3.2645420519326627
-0.6324249317405023,-0.22290059232056228,0.3530990254458743
-0.6324249317405023,-0.22290059232056228,-2.6622062131641737
-0.6324249317405023,-0.22290059232056228,-1.0892295525840603
-0.6324249317405023,-2.6622062131641737,3.2645420519326627
-0.6324249317405023,-2.6622062131641737,0.3530990254458743
-0.6324249317405023,-2.6622062131641737,-1.0892295525840603
-0.6324249317405023,-1.0892295525840603,3.2645420519326627
-0.6324249317405023,-1.0892295525840603,0.3530990254458743
-0.6324249317405023,3.2645420519326627,0.3530990254458743
-1.4312125547869246,0.5395384646676542,3.2645420519326627
-1.4312125547869246,0.5395384646676542,0.3530990254458743
-1.4312125547869246,0.5395384646676542,-0.22290059232056228
-1.4312125547869246,0.5395384646676542,-2.6622062131641737
-1.4312125547869246,0.5395384646676542,-1.0892295525840603
-1.4312125547869246,-0.22290059232056228,3.2645420519326627
-1.4312125547869246,-0.22290059232056228,0.3530990254458743
-1.4312125547869246,-0.22290059232056228,-2.6622062131641737
-1.4312125547869246,-0.22290059232056228,-1.0892295525840603
-1.4312125547869246,-2.6622062131641737,3.2645420519326627
-1.4312125547869246,-2.6622062131641737,0.3530990254458743
-1.4312125547869246,-2.6622062131641737,-1.0892295525840603
-1.4312125547869246,-1.0892295525840603,3.2645420519326627
-1.4312125547869246,-1.0892295525840603,0.3530990254458743
-1.4312125547869246,3.2645420519326627,0.3530990254458743
0.5395384646676542,3.2645420519326627,0.3530990254458743
0.5395384646676542,-0.22290059232056228,3.2645420519326627
0.5395384646676542,-0.22290059232056228,0.3530990254458743
0.5395384646676542,-0.22290059232056228,-2.6622062131641737
0.5395384646676542,-0.22290059232056228,-1.0892295525840603
0.5395384646676542,-2.6622062131641737,3.2645420519326627
0.5395384646676542,-2.6622062131641737,0.3530990254458743
0.5395384646676542,-2.6622062131641737,-1.0892295525840603
0.5395384646676542,-1.0892295525840603,3.2645420519326627
0.5395384646676542,-1.0892295525840603,0.3530990254458743
-0.22290059232056228,3.2645420519326627,0.3530990254458743
-0.22290059232056228,-2.6622062131641737,3.2645420519326627
-0.22290059232056228,-2.6622062131641737,0.3530990254458743
-0.22290059232056228,-2.6622062131641737,-1.0892295525840603
-0.22290059232056228,-1.0892295525840603,3.2645420519326627
-0.22290059232056228,-1.0892295525840603,0.3530990254458743
-2.6622062131641737,3.2645420519326627,0.3530990254458743
-2.6622062131641737,-1.0892295525840603,3.2645420519326627
-2.6622062131641737,-1.0892295525840603,0.3530990254458743
-1.0892295525840603,3.2645420519326627,0.3530990254458743
