0,1,2
-0.06491579131972641,4.528671800014542,0.9685593377469719
-0.06491579131972641,4.528671800014542,-1.8303583156958363
-0.06491579131972641,4.528671800014542,3.4403346314065204
-0.06491579131972641,4.528671800014542,-0.1587795839990322
-0.06491579131972641,4.528671800014542,3.466635513347917
-0.06491579131972641,4.528671800014542,-3.265643913248083
-0.06491579131972641,4.528671800014542,1.2760763771071437
-0.06491579131972641,4.528671800014542,4.2609303858709815
-0.06491579131972641,0.9685593377469719,-1.8303583156958363
-0.06491579131972641,0.9685593377469719,3.4403346314065204
-0.06491579131972641,0.9685593377469719,-0.1587795839990322
-0.06491579131972641,0.9685593377469719,3.466635513347917
-0.06491579131972641,0.9685593377469719,-3.265643913248083
-0.06491579131972641,0.9685593377469719,1.2760763771071437
-0.06491579131972641,0.9685593377469719,4.2609303858709815
-0.06491579131972641,-1.8303583156958363,3.4403346314065204
-0.06491579131972641,-1.8303583156958363,-0.1587795839990322
-0.06491579131972641,-1.8303583156958363,3.466635513347917
-0.06491579131972641,-1.8303583156958363,-3.265643913248083
-0.06491579131972641,-1.8303583156958363,1.2760763771071437
-0.06491579131972641,-1.8303583156958363,4.2609303858709815
-0.06491579131972641,3.4403346314065204,1.2760763771071437
-0.06491579131972641,3.4403346314065204,4.2609303858709815
-0.06491579131972641,3.4403346314065204,-0.1587795839990322
-0.06491579131972641,3.4403346314065204,3.466635513347917
-0.06491579131972641,3.4403346314065204,-3.265643913248083
-0.06491579131972641,-0.1587795839990322,1.2760763771071437
-0.06491579131972641,-0.1587795839990322,4.2609303858709815
-0.06491579131972641,-0.1587795839990322,3.466635513347917
-0.06491579131972641,-0.1587795839990322,-3.265643913248083
-0.06491579131972641,3.466635513347917,1.2760763771071437
-0.06491579131972641,3.466635513347917,4.2609303858709815
-0.06491579131972641,3.466635513347917,-3.265643913248083
-0.06491579131972641,-3.265643913248083,1.2760763771071437
-0.06491579131972641,-3.265643913248083,4.2609303858709815
-0.06491579131972641,1.2760763771071437,4.2609303858709815
4.528671800014542,0.9685593377469719,-1.8303583156958363
4.528671800014542,0.9685593377469719,3.4403346314065204
4.528671800014542,0.9685593377469719,-0.1587795839990322
4.528671800014542,0.9685593377469719,3.466635513347917
4.528671800014542,0.9685593377469719,-3.265643913248083
4.528671800014542,0.9685593377469719,1.2760763771071437
4.528671800014542,0.9685593377469719,4.2609303858709815
4.528671800014542,-1.8303583156958363,3.4403346314065204
4.528671800014542,-1.8303583156958363,-0.1587795839990322
4.528671800014542,-1.8303583156958363,3.466635513347917
4.528671800014542,-1.8303583156958363,-3.265643913248083
4.528671800014542,-1.8303583156958363,1.2760763771071437
4.528671800014542,-1.8303583156958363,4.2609303858709815
4.528671800014542,3.4403346314065204,1.2760763771071437
4.528671800014542,3.4403346314065204,4.2609303858709815
4.528671800014542,3.4403346314065204,-0.1587795839990322
4.528671800014542,3.4403346314065204,3.466635513347917
4.528671800014542,3.4403346314065204,-3.265643913248083
4.528671800014542,-0.1587795839990322,1.2760763771071437
4.528671800014542,-0.1587795839990322,4.2609303858709815
4.528671800014542,-0.1587795839990322,3.466635513347917
4.528671800014542,-0.1587795839990322,-3.265643913248083
4.528671800014542,3.466635513347917,1.2760763771071437
4.528671800014542,3.466635513347917,4.2609303858709815
4.528671800014542,3.466635513347917,-3.265643913248083
4.528671800014542,-3.265643913248083,1.2760763771071437
4.528671800014542,-3.265643913248083,4.2609303858709815
4.528671800014542,1.2760763771071437,4.2609303858709815
0.9685593377469719,-1.8303583156958363,3.4403346314065204
0.9685593377469719,-1.8303583156958363,-0.1587795839990322
0.9685593377469719,-1.8303583156958363,3.466635513347917
0.9685593377469719,-1.8303583156958363,-3.265643913248083
0.9685593377469719,-1.8303583156958363,1.2760763771071437
0.9685593377469719,-1.8303583156958363,4.2609303858709815
0.9685593377469719,3.4403346314065204,1.2760763771071437
0.9685593377469719,3.4403346314065204,4.2609303858709815
0.9685593377469719,3.4403346314065204,-0.1587795839990322
0.9685593377469719,3.4403346314065204,3.466635513347917
0.9685593377469719,3.4403346314065204,-3.265643913248083
0.9685593377469719,-0.1587795839990322,1.2760763771071437
0.9685593377469719,-0.1587795839990322,4.2609303858709815
0.9685593377469719,-0.1587795839990322,3.466635513347917
0.9685593377469719,-0.1587795839990322,-3.265643913248083
0.9685593377469719,3.466635513347917,1.2760763771071437
0.9685593377469719,3.466635513347917,4.2609303858709815
0.9685593377469719,3.466635513347917,-3.265643913248083
0.9685593377469719,-3.265643913248083,1.2760763771071437
0.9685593377469719,-3.265643913248083,4.2609303858709815
0.9685593377469719,1.2760763771071437,4.2609303858709815
-1.8303583156958363,3.4403346314065204,1.2760763771071437
-1.8303583156958363,3.4403346314065204,4.2609303858709815
-1.8303583156958363,3.4403346314065204,-0.1587795839990322
-1.8303583156958363,3.4403346314065204,3.466635513347917
-1.8303583156958363,3.4403346314065204,-3.265643913248083
-1.8303583156958363,-0.1587795839990322,1.2760763771071437
-1.8303583156958363,-0.1587795839990322,4.2609303858709815
-1.8303583156958363,-0.1587795839990322,3.466635513347917
-1.8303583156958363,-0.1587795839990322,-3.265643913248083
-1.8303583156958363,3.466635513347917,1.2760763771071437
-1.8303583156958363,3.466635513347917,4.2609303858709815
-1.8303583156958363,3.466635513347917,-3.265643913248083
-1.8303583156958363,-3.265643913248083,1.2760763771071437
-1.8303583156958363,-3.265643913248083,4.2609303858709815
-1.8303583156958363,1.2760763771071437,4.2609303858709815
3.4403346314065204,1.2760763771071437,4.2609303858709815
3.4403346314065204,-0.1587795839990322,1.2760763771071437
3.4403346314065204,-0.1587795839990322,4.2609303858709815
3.4403346314065204,-0.1587795839990322,3.466635513347917
3.4403346314065204,-0.1587795839990322,-3.265643913248083
3.4403346314065204,3.466635513347917,1.2760763771071437
3.4403346314065204,3.466635513347917,4.2609303858709815
3.4403346314065204,3.466635513347917,-3.265643913248083
3.4403346314065204,-3.265643913248083,1.2760763771071437
3.4403346314065204,-3.265643913248083,4.2609303858709815
-0.1587795839990322,1.2760763771071437,4.2609303858709815
-0.1587795839990322,3.466635513347917,1.2760763771071437
-0.1587795839990322,3.466635513347917,4.2609303858709815
-0.1587795839990322,3.466635513347917,-3.265643913248083
-0.1587795839990322,-3.265643913248083,1.2760763771071437
-0.1587795839990322,-3.265643913248083,4.2609303858709815
3.466635513347917,1.2760763771071437,4.2609303858709815
3.466635513347917,-3.265643913248083,1.2760763771071437
3.466635513347917,-3.265643913248083,4.2609303858709815
-3.265643913248083,1.2760763771071437,4.2609303858709815
