0,1,2
-4.362886400504008,0.8721057177286452,0.693773174177178
-4.362886400504008,0.8721057177286452,1.643172352266225
-4.362886400504008,0.8721057177286452,3.3495537035869054
-4.362886400504008,0.8721057177286452,0.389676289877733
-4.362886400504008,0.8721057177286452,-0.6283219821108554
-4.362886400504008,0.8721057177286452,-1.1709592518090748
-4.362886400504008,0.8721057177286452,2.989392840254901
-4.362886400504008,0.8721057177286452,3.882848343863627
-4.362886400504008,0.693773174177178,1.643172352266225
-4.362886400504008,0.693773174177178,3.3495537035869054
-4.362886400504008,0.693773174177178,0.389676289877733
-4.362886400504008,0.693773174177178,-0.6283219821108554
-4.362886400504008,0.693773174177178,-1.1709592518090748
-4.362886400504008,0.693773174177178,2.989392840254901
-4.362886400504008,0.693773174177178,3.882848343863627
-4.362886400504008,1.643172352266225,3.3495537035869054
-4.362886400504008,1.643172352266225,0.389676289877733
-4.362886400504008,1.643172352266225,-0.6283219821108554
-4.362886400504008,1.643172352266225,-1.1709592518090748
-4.362886400504008,1.643172352266225,2.989392840254901
-4.362886400504008,1.643172352266225,3.882848343863627
-4.362886400504008,3.3495537035869054,2.989392840254901
-4.362886400504008,3.3495537035869054,3.882848343863627
-4.362886400504008,3.3495537035869054,0.389676289877733
-4.362886400504008,3.3495537035869054,-0.6283219821108554
-4.362886400504008,3.3495537035869054,-1.1709592518090748
-4.362886400504008,0.389676289877733,2.989392840254901
-4.362886400504008,0.389676289877733,3.882848343863627
-4.362886400504008,0.389676289877733,-0.6283219821108554
-4.362886400504008,0.389676289877733,-1.1709592518090748
-4.362886400504008,-0.6283219821108554,2.989392840254901
-4.362886400504008,-0.6283219821108554,3.882848343863627
-4.362886400504008,-0.6283219821108554,-1.1709592518090748
-4.362886400504008,-1.1709592518090748,2.989392840254901
-4.362886400504008,-1.1709592518090748,3.882848343863627
-4.362886400504008,2.989392840254901,3.882848343863627
0.8721057177286452,0.693773174177178,1.643172352266225
0.8721057177286452,0.693773174177178,3.3495537035869054
0.8721057177286452,0.693773174177178,0.389676289877733
0.8721057177286452,0.693773174177178,-0.6283219821108554
0.8721057177286452,0.693773174177178,-1.1709592518090748
0.8721057177286452,0.693773174177178,2.989392840254901
0.8721057177286452,0.693773174177178,3.882848343863627
0.8721057177286452,1.643172352266225,3.3495537035869054
0.8721057177286452,1.643172352266225,0.389676289877733
0.8721057177286452,1.643172352266225,-0.6283219821108554
0.8721057177286452,1.643172352266225,-1.1709592518090748
0.8721057177286452,1.643172352266225,2.989392840254901
0.8721057177286452,1.643172352266225,3.882848343863627
0.8721057177286452,3.3495537035869054,2.989392840254901
0.8721057177286452,3.3495537035869054,3.882848343863627
0.8721057177286452,3.3495537035869054,0.389676289877733
0.8721057177286452,3.3495537035869054,-0.6283219821108554
0.8721057177286452,3.3495537035869054,-1.1709592518090748
0.8721057177286452,0.389676289877733,2.989392840254901
0.8721057177286452,0.389676289877733,3.882848343863627
0.8721057177286452,0.389676289877733,-0.6283219821108554
0.8721057177286452,0.389676289877733,-1.1709592518090748
0.8721057177286452,-0.6283219821108554,2.989392840254901
0.8721057177286452,-0.6283219821108554,3.882848343863627
0.8721057177286452,-0.6283219821108554,-1.1709592518090748
0.8721057177286452,-1.1709592518090748,2.989392840254901
0.8721057177286452,-1.1709592518090748,3.882848343863627
0.8721057177286452,2.989392840254901,3.882848343863627
0.693773174177178,1.643172352266225,3.3495537035869054
0.693773174177178,1.643172352266225,0.389676289877733
0.693773174177178,1.643172352266225,-0.6283219821108554
0.693773174177178,1.643172352266225,-1.1709592518090748
0.693773174177178,1.643172352266225,2.989392840254901
0.693773174177178,1.643172352266225,3.882848343863627
0.693773174177178,3.3495537035869054,2.989392840254901
0.693773174177178,3.3495537035869054,3.882848343863627
0.693773174177178,3.3495537035869054,0.389676289877733
0.693773174177178,3.3495537035869054,-0.6283219821108554
0.693773174177178,3.3495537035869054,-1.1709592518090748
0.693773174177178,0.389676289877733,2.989392840254901
0.693773174177178,0.389676289877733,3.882848343863627
0.693773174177178,0.389676289877733,-0.6283219821108554
0.693773174177178,0.389676289877733,-1.1709592518090748
0.693773174177178,-0.6283219821108554,2.989392840254901
0.693773174177178,-0.6283219821108554,3.882848343863627
0.693773174177178,-0.6283219821108554,-1.1709592518090748
0.693773174177178,-1.1709592518090748,2.989392840254901
0.693773174177178,-1.1709592518090748,3.882848343863627
0.693773174177178,2.989392840254901,3.882848343863627
1.643172352266225,3.3495537035869054,2.989392840254901
1.643172352266225,3.3495537035869054,3.882848343863627
1.643172352266225,3.3495537035869054,0.389676289877733
1.643172352266225,3.3495537035869054,-0.6283219821108554
1.643172352266225,3.3495537035869054,-1.1709592518090748
1.643172352266225,0.389676289877733,2.989392840254901
1.643172352266225,0.389676289877733,3.882848343863627
1.643172352266225,0.389676289877733,-0.6283219821108554
1.643172352266225,0.389676289877733,-1.1709592518090748
1.643172352266225,-0.6283219821108554,2.989392840254901
1.643172352266225,-0.6283219821108554,3.882848343863627
1.643172352266225,-0.6283219821108554,-1.1709592518090748
1.643172352266225,-1.1709592518090748,2.989392840254901
1.643172352266225,-1.1709592518090748,3.882848343863627
1.643172352266225,2.989392840254901,3.882848343863627
3.3495537035869054,2.989392840254901,3.882848343863627
3.3495537035869054,0.389676289877733,2.989392840254901
3.3495537035869054,0.389676289877733,3.882848343863627
3.3495537035869054,0.389676289877733,-0.6283219821108554
3.3495537035869054,0.389676289877733,-1.1709592518090748
3.3495537035869054,-0.6283219821108554,2.989392840254901
3.3495537035869054,-0.6283219821108554,3.882848343863627
3.3495537035869054,-0.6283219821108554,-1.1709592518090748
3.3495537035869054,-1.1709592518090748,2.989392840254901
3.3495537035869054,-1.1709592518090748,3.882848343863627
0.389676289877733,2.989392840254901,3.882848343863627
0.389676289877733,-0.6283219821108554,2.989392840254901
0.389676289877733,-0.6283219821108554,3.882848343863627
0.389676289877733,-0.6283219821108554,-1.1709592518090748
0.389676289877733,-1.1709592518090748,2.989392840254901
0.389676289877733,-1.1709592518090748,3.882848343863627
-0.6283219821108554,2.989392840254901,3.882848343863627
-0.6283219821108554,-1.1709592518090748,2.989392840254901
-0.6283219821108554,-1.1709592518090748,3.882848343863627
-1.1709592518090748,2.989392840254901,3.882848343863627
