0,1,2
-1.4966126107392903,-3.6365798477915345,1.8030335468856382
-1.4966126107392903,-3.6365798477915345,2.143713471694767
-1.4966126107392903,-3.6365798477915345,2.3456694276887995
-1.4966126107392903,-3.6365798477915345,3.1489995832000073
-1.4966126107392903,-3.6365798477915345,0.7071260668256512
-1.4966126107392903,-3.6365798477915345,0.9200875891197462
-1.4966126107392903,-3.6365798477915345,-2.0148960621896195
-1.4966126107392903,-3.6365798477915345,-2.641958529617415
-1.4966126107392903,1.8030335468856382,2.143713471694767
-1.4966126107392903,1.8030335468856382,2.3456694276887995
-1.4966126107392903,1.8030335468856382,3.1489995832000073
-1.4966126107392903,1.8030335468856382,0.7071260668256512
-1.4966126107392903,1.8030335468856382,0.9200875891197462
-1.4966126107392903,1.8030335468856382,-2.0148960621896195
-1.4966126107392903,1.8030335468856382,-2.641958529617415
-1.4966126107392903,2.143713471694767,2.3456694276887995
-1.4966126107392903,2.143713471694767,3.1489995832000073
-1.4966126107392903,2.143713471694767,0.7071260668256512
-1.4966126107392903,2.143713471694767,0.9200875891197462
-1.4966126107392903,2.143713471694767,-2.0148960621896195
-1.4966126107392903,2.143713471694767,-2.641958529617415
-1.4966126107392903,2.3456694276887995,-2.0148960621896195
-1.4966126107392903,2.3456694276887995,-2.641958529617415
-1.4966126107392903,2.3456694276887995,3.1489995832000073
-1.4966126107392903,2.3456694276887995,0.7071260668256512
-1.4966126107392903,2.3456694276887995,0.9200875891197462
-1.4966126107392903,3.1489995832000073,-2.0148960621896195
-1.4966126107392903,3.1489995832000073,-2.641958529617415
-1.4966126107392903,3.1489995832000073,0.7071260668256512
-1.4966126107392903,3.1489995832000073,0.9200875891197462
-1.4966126107392903,0.7071260668256512,-2.0148960621896195
-1.4966126107392903,0.7071260668256512,-2.641958529617415
-1.4966126107392903,0.7071260668256512,0.9200875891197462
-1.4966126107392903,0.9200875891197462,-2.0148960621896195
-1.4966126107392903,0.9200875891197462,-2.641958529617415
-1.4966126107392903,-2.0148960621896195,-2.641958529617415
-3.6365798477915345,1.8030335468856382,2.143713471694767
-3.6365798477915345,1.8030335468856382,2.3456694276887995
-3.6365798477915345,1.8030335468856382,3.1489995832000073
-3.6365798477915345,1.8030335468856382,0.7071260668256512
-3.6365798477915345,1.8030335468856382,0.9200875891197462
-3.6365798477915345,1.8030335468856382,-2.0148960621896195
-3.6365798477915345,1.8030335468856382,-2.641958529617415
-3.6365798477915345,2.143713471694767,2.3456694276887995
-3.6365798477915345,2.143713471694767,3.1489995832000073
-3.6365798477915345,2.143713471694767,0.7071260668256512
-3.6365798477915345,2.143713471694767,0.9200875891197462
-3.6365798477915345,2.143713471694767,-2.0148960621896195
-3.6365798477915345,2.143713471694767,-2.641958529617415
-3.6365798477915345,2.3456694276887995,-2.0148960621896195
-3.6365798477915345,2.3456694276887995,-2.641958529617415
-3.6365798477915345,2.3456694276887995,3.1489995832000073
-3.6365798477915345,2.3456694276887995,0.7071260668256512
-3.6365798477915345,2.3456694276887995,0.9200875891197462
-3.6365798477915345,3.1489995832000073,-2.0148960621896195
-3.6365798477915345,3.1489995832000073,-2.641958529617415
-3.6365798477915345,3.1489995832000073,0.7071260668256512
-3.6365798477915345,3.1489995832000073,0.9200875891197462
-3.6365798477915345,0.7071260668256512,-2.0148960621896195
-3.6365798477915345,0.7071260668256512,-2.641958529617415
-3.6365798477915345,0.7071260668256512,0.9200875891197462
-3.6365798477915345,0.9200875891197462,-2.0148960621896195
-3.6365798477915345,0.9200875891197462,-2.641958529617415
-3.6365798477915345,-2.0148960621896195,-2.641958529617415
1.8030335468856382,2.143713471694767,2.3456694276887995
1.8030335468856382,2.143713471694767,3.1489995832000073
1.8030335468856382,2.143713471694767,0.7071260668256512
1.8030335468856382,2.143713471694767,0.9200875891197462
1.8030335468856382,2.143713471694767,-2.0148960621896195
1.8030335468856382,2.143713471694767,-2.641958529617415
1.8030335468856382,2.3456694276887995,-2.0148960621896195
1.8030335468856382,2.3456694276887995,-2.641958529617415
1.8030335468856382,2.3456694276887995,3.1489995832000073
1.8030335468856382,2.3456694276887995,0.7071260668256512
1.8030335468856382,2.3456694276887995,0.9200875891197462
1.8030335468856382,3.1489995832000073,-2.0148960621896195
1.8030335468856382,3.1489995832000073,-2.641958529617415
1.8030335468856382,3.1489995832000073,0.7071260668256512
1.8030335468856382,3.1489995832000073,0.9200875891197462
1.8030335468856382,0.7071260668256512,-2.0148960621896195
1.8030335468856382,0.7071260668256512,-2.641958529617415
1.8030335468856382,0.7071260668256512,0.9200875891197462
1.8030335468856382,0.9200875891197462,-2.0148960621896195
1.8030335468856382,0.9200875891197462,-2.641958529617415
1.8030335468856382,-2.0148960621896195,-2.641958529617415
2.143713471694767,2.3456694276887995,-2.0148960621896195
2.143713471694767,2.3456694276887995,-2.641958529617415
2.143713471694767,2.3456694276887995,3.1489995832000073
2.143713471694767,2.3456694276887995,0.7071260668256512
2.143713471694767,2.3456694276887995,0.9200875891197462
2.143713471694767,3.1489995832000073,-2.0148960621896195
2.143713471694767,3.1489995832000073,-2.641958529617415
2.143713471694767,3.1489995832000073,0.7071260668256512
2.143713471694767,3.1489995832000073,0.9200875891197462
2.143713471694767,0.7071260668256512,-2.0148960621896195
2.143713471694767,0.7071260668256512,-2.641958529617415
2.143713471694767,0.7071260668256512,0.9200875891197462
2.143713471694767,0.9200875891197462,-2.0148960621896195
2.143713471694767,0.9200875891197462,-2.641958529617415
2.143713471694767,-2.0148960621896195,-2.641958529617415
2.3456694276887995,-2.0148960621896195,-2.641958529617415
2.3456694276887995,3.1489995832000073,-2.0148960621896195
2.3456694276887995,3.1489995832000073,-2.641958529617415
2.3456694276887995,3.1489995832000073,0.7071260668256512
2.3456694276887995,3.1489995832000073,0.9200875891197462
2.3456694276887995,0.7071260668256512,-2.0148960621896195
2.3456694276887995,0.7071260668256512,-2.641958529617415
2.3456694276887995,0.7071260668256512,0.9200875891197462
2.3456694276887995,0.9200875891197462,-2.0148960621896195
2.3456694276887995,0.9200875891197462,-2.641958529617415
3.1489995832000073,-2.0148960621896195,-2.641958529617415
3.1489995832000073,0.7071260668256512,-2.0148960621896195
3.1489995832000073,0.7071260668256512,-2.641958529617415
3.1489995832000073,0.7071260668256512,0.9200875891197462
3.1489995832000073,0.9200875891197462,-2.0148960621896195
3.1489995832000073,0.9200875891197462,-2.641958529617415
0.7071260668256512,-2.0148960621896195,-2.641958529617415
0.7071260668256512,0.9200875891197462,-2.0148960621896195
0.7071260668256512,0.9200875891197462,-2.641958529617415
0.9200875891197462,-2.0148960621896195,-2.641958529617415
