0,1,2
0.006918733904376644,1.159003368205305,2.1513708473736077
0.006918733904376644,1.159003368205305,-1.231114063764571
0.006918733904376644,1.159003368205305,-2.306178634779524
0.006918733904376644,1.159003368205305,-1.2946542476397358
0.006918733904376644,1.159003368205305,1.713120154947921
0.006918733904376644,1.159003368205305,-1.3254777778874696
0.006918733904376644,1.159003368205305,0.9515231664826966
0.006918733904376644,1.159003368205305,-0.9412568565401399
0.006918733904376644,2.1513708473736077,-1.231114063764571
0.006918733904376644,2.1513708473736077,-2.306178634779524
0.006918733904376644,2.1513708473736077,-1.2946542476397358
0.006918733904376644,2.1513708473736077,1.713120154947921
0.006918733904376644,2.1513708473736077,-1.3254777778874696
0.006918733904376644,2.1513708473736077,0.9515231664826966
0.006918733904376644,2.1513708473736077,-0.9412568565401399
0.006918733904376644,-1.231114063764571,-2.306178634779524
0.006918733904376644,-1.231114063764571,-1.2946542476397358
0.006918733904376644,-1.231114063764571,1.713120154947921
0.006918733904376644,-1.231114063764571,-1.3254777778874696
0.006918733904376644,-1.231114063764571,0.9515231664826966
0.006918733904376644,-1.231114063764571,-0.9412568565401399
0.006918733904376644,-2.306178634779524,0.9515231664826966
0.006918733904376644,-2.306178634779524,-0.9412568565401399
0.006918733904376644,-2.306178634779524,-1.2946542476397358
0.006918733904376644,-2.306178634779524,1.713120154947921
0.006918733904376644,-2.306178634779524,-1.3254777778874696
0.006918733904376644,-1.2946542476397358,0.9515231664826966
0.006918733904376644,-1.2946542476397358,-0.9412568565401399
0.006918733904376644,-1.2946542476397358,1.713120154947921
0.006918733904376644,-1.2946542476397358,-1.3254777778874696
0.006918733904376644,1.713120154947921,0.9515231664826966
0.006918733904376644,1.713120154947921,-0.9412568565401399
0.006918733904376644,1.713120154947921,-1.3254777778874696
0.006918733904376644,-1.3254777778874696,0.9515231664826966
0.006918733904376644,-1.3254777778874696,-0.9412568565401399
0.006918733904376644,0.9515231664826966,-0.9412568565401399
1.159003368205305,2.1513708473736077,-1.231114063764571
1.159003368205305,2.1513708473736077,-2.306178634779524
1.159003368205305,2.1513708473736077,-1.2946542476397358
1.159003368205305,2.1513708473736077,1.713120154947921
1.159003368205305,2.1513708473736077,-1.3254777778874696
1.159003368205305,2.1513708473736077,0.9515231664826966
1.159003368205305,2.1513708473736077,-0.9412568565401399
1.159003368205305,-1.231114063764571,-2.306178634779524
1.159003368205305,-1.231114063764571,-1.2946542476397358
1.159003368205305,-1.231114063764571,1.713120154947921
1.159003368205305,-1.231114063764571,-1.3254777778874696
1.159003368205305,-1.231114063764571,0.9515231664826966
1.159003368205305,-1.231114063764571,-0.9412568565401399
1.159003368205305,-2.306178634779524,0.9515231664826966
1.159003368205305,-2.306178634779524,-0.9412568565401399
1.159003368205305,-2.306178634779524,-1.2946542476397358
1.159003368205305,-2.306178634779524,1.713120154947921
1.159003368205305,-2.306178634779524,-1.3254777778874696
1.159003368205305,-1.2946542476397358,0.9515231664826966
1.159003368205305,-1.2946542476397358,-0.9412568565401399
1.159003368205305,-1.2946542476397358,1.713120154947921
1.159003368205305,-1.2946542476397358,-1.3254777778874696
1.159003368205305,1.713120154947921,0.9515231664826966
1.159003368205305,1.713120154947921,-0.9412568565401399
1.159003368205305,1.713120154947921,-1.3254777778874696
1.159003368205305,-1.3254777778874696,0.9515231664826966
1.159003368205305,-1.3254777778874696,-0.9412568565401399
1.159003368205305,0.9515231664826966,-0.9412568565401399
2.1513708473736077,-1.231114063764571,-2.306178634779524
2.1513708473736077,-1.231114063764571,-1.2946542476397358
2.1513708473736077,-1.231114063764571,1.713120154947921
2.1513708473736077,-1.231114063764571,-1.3254777778874696
2.1513708473736077,-1.231114063764571,0.9515231664826966
2.1513708473736077,-1.231114063764571,-0.9412568565401399
2.1513708473736077,-2.306178634779524,0.9515231664826966
2.1513708473736077,-2.306178634779524,-0.9412568565401399
2.1513708473736077,-2.306178634779524,-1.2946542476397358
2.1513708473736077,-2.306178634779524,1.713120154947921
2.1513708473736077,-2.306178634779524,-1.3254777778874696
2.1513708473736077,-1.2946542476397358,0.9515231664826966
2.1513708473736077,-1.2946542476397358,-0.9412568565401399
2.1513708473736077,-1.2946542476397358,1.713120154947921
2.1513708473736077,-1.2946542476397358,-1.3254777778874696
2.1513708473736077,1.713120154947921,0.9515231664826966
2.1513708473736077,1.713120154947921,-0.9412568565401399
2.1513708473736077,1.713120154947921,-1.3254777778874696
2.1513708473736077,-1.3254777778874696,0.9515231664826966
2.1513708473736077,-1.3254777778874696,-0.9412568565401399
2.1513708473736077,0.9515231664826966,-0.9412568565401399
-1.231114063764571,-2.306178634779524,0.9515231664826966
-1.231114063764571,-2.306178634779524,-0.9412568565401399
-1.231114063764571,-2.306178634779524,-1.2946542476397358
-1.231114063764571,-2.306178634779524,1.713120154947921
-1.231114063764571,-2.306178634779524,-1.3254777778874696
-1.231114063764571,-1.2946542476397358,0.9515231664826966
-1.231114063764571,-1.2946542476397358,-0.9412568565401399
-1.231114063764571,-1.2946542476397358,1.713120154947921
-1.231114063764571,-1.2946542476397358,-1.3254777778874696
-1.231114063764571,1.713120154947921,0.9515231664826966
-1.231114063764571,1.713120154947921,-0.9412568565401399
-1.231114063764571,1.713120154947921,-1.3254777778874696
-1.231114063764571,-1.3254777778874696,0.9515231664826966
-1.231114063764571,-1.3254777778874696,-0.9412568565401399
-1.231114063764571,0.9515231664826966,-0.9412568565401399
-2.306178634779524,0.9515231664826966,-0.9412568565401399
-2.306178634779524,-1.2946542476397358,0.9515231664826966
-2.306178634779524,-1.2946542476397358,-0.9412568565401399
-2.306178634779524,-1.2946542476397358,1.713120154947921
-2.306178634779524,-1.2946542476397358,-1.3254777778874696
-2.306178634779524,1.713120154947921,0.9515231664826966
-2.306178634779524,1.713120154947921,-0.9412568565401399
-2.306178634779524,1.713120154947921,-1.3254777778874696
-2.306178634779524,-1.3254777778874696,0.9515231664826966
-2.306178634779524,-1.3254777778874696,-0.9412568565401399
-1.2946542476397358,0.9515231664826966,-0.9412568565401399
-1.2946542476397358,1.713120154947921,0.9515231664826966
-1.2946542476397358,1.713120154947921,-0.9412568565401399
-1.2946542476397358,1.713120154947921,-1.3254777778874696
-1.2946542476397358,-1.3254777778874696,0.9515231664826966
-1.2946542476397358,-1.3254777778874696,-0.9412568565401399
1.713120154947921,0.9515231664826966,-0.9412568565401399
1.713120154947921,-1.3254777778874696,0.9515231664826966
1.713120154947921,-1.3254777778874696,-0.9412568565401399
-1.3254777778874696,0.9515231664826966,-0.9412568565401399
