0,1,2
0.5999467013300955,2.7492489679928966,-1.1122268819835996
0.5999467013300955,2.7492489679928966,-2.224843973505194
0.5999467013300955,2.7492489679928966,-1.7108398216234768
0.5999467013300955,2.7492489679928966,0.3976684589249641
0.5999467013300955,2.7492489679928966,-1.685430962472374
0.5999467013300955,2.7492489679928966,-2.06297902043175
0.5999467013300955,2.7492489679928966,-0.6738325067530655
0.5999467013300955,2.7492489679928966,0.9031930907311863
0.5999467013300955,-1.1122268819835996,-2.224843973505194
0.5999467013300955,-1.1122268819835996,-1.7108398216234768
0.5999467013300955,-1.1122268819835996,0.3976684589249641
0.5999467013300955,-1.1122268819835996,-1.685430962472374
0.5999467013300955,-1.1122268819835996,-2.06297902043175
0.5999467013300955,-1.1122268819835996,-0.6738325067530655
0.5999467013300955,-1.1122268819835996,0.9031930907311863
0.5999467013300955,-2.224843973505194,-1.7108398216234768
0.5999467013300955,-2.224843973505194,0.3976684589249641
0.5999467013300955,-2.224843973505194,-1.685430962472374
0.5999467013300955,-2.224843973505194,-2.06297902043175
0.5999467013300955,-2.224843973505194,-0.6738325067530655
0.5999467013300955,-2.224843973505194,0.9031930907311863
0.5999467013300955,-1.7108398216234768,-0.6738325067530655
0.5999467013300955,-1.7108398216234768,0.9031930907311863
0.5999467013300955,-1.7108398216234768,0.3976684589249641
0.5999467013300955,-1.7108398216234768,-1.685430962472374
0.5999467013300955,-1.7108398216234768,-2.06297902043175
0.5999467013300955,0.3976684589249641,-0.6738325067530655
0.5999467013300955,0.3976684589249641,0.9031930907311863
0.5999467013300955,0.3976684589249641,-1.685430962472374
0.5999467013300955,0.3976684589249641,-2.06297902043175
0.5999467013300955,-1.685430962472374,-0.6738325067530655
0.5999467013300955,-1.685430962472374,0.9031930907311863
0.5999467013300955,-1.685430962472374,-2.06297902043175
0.5999467013300955,-2.06297902043175,-0.6738325067530655
0.5999467013300955,-2.06297902043175,0.9031930907311863
0.5999467013300955,-0.6738325067530655,0.9031930907311863
2.7492489679928966,-1.1122268819835996,-2.224843973505194
2.7492489679928966,-1.1122268819835996,-1.7108398216234768
2.7492489679928966,-1.1122268819835996,0.3976684589249641
2.7492489679928966,-1.1122268819835996,-1.685430962472374
2.7492489679928966,-1.1122268819835996,-2.06297902043175
2.7492489679928966,-1.1122268819835996,-0.6738325067530655
2.7492489679928966,-1.1122268819835996,0.9031930907311863
2.7492489679928966,-2.224843973505194,-1.7108398216234768
2.7492489679928966,-2.224843973505194,0.3976684589249641
2.7492489679928966,-2.224843973505194,-1.685430962472374
2.7492489679928966,-2.224843973505194,-2.06297902043175
2.7492489679928966,-2.224843973505194,-0.6738325067530655
2.7492489679928966,-2.224843973505194,0.9031930907311863
2.7492489679928966,-1.7108398216234768,-0.6738325067530655
2.7492489679928966,-1.7108398216234768,0.9031930907311863
2.7492489679928966,-1.7108398216234768,0.3976684589249641
2.7492489679928966,-1.7108398216234768,-1.685430962472374
2.7492489679928966,-1.7108398216234768,-2.06297902043175
2.7492489679928966,0.3976684589249641,-0.6738325067530655
2.7492489679928966,0.3976684589249641,0.9031930907311863
2.7492489679928966,0.3976684589249641,-1.685430962472374
2.7492489679928966,0.3976684589249641,-2.06297902043175
2.7492489679928966,-1.685430962472374,-0.6738325067530655
2.7492489679928966,-1.685430962472374,0.9031930907311863
2.7492489679928966,-1.685430962472374,-2.06297902043175
2.7492489679928966,-2.06297902043175,-0.6738325067530655
2.7492489679928966,-2.06297902043175,0.9031930907311863
2.7492489679928966,-0.6738325067530655,0.9031930907311863
-1.1122268819835996,-2.224843973505194,-1.7108398216234768
-1.1122268819835996,-2.224843973505194,0.3976684589249641
-1.1122268819835996,-2.224843973505194,-1.685430962472374
-1.1122268819835996,-2.224843973505194,-2.06297902043175
-1.1122268819835996,-2.224843973505194,-0.6738325067530655
-1.1122268819835996,-2.224843973505194,0.9031930907311863
-1.1122268819835996,-1.7108398216234768,-0.6738325067530655
-1.1122268819835996,-1.7108398216234768,0.9031930907311863
-1.1122268819835996,-1.7108398216234768,0.3976684589249641
-1.1122268819835996,-1.7108398216234768,-1.685430962472374
-1.1122268819835996,-1.7108398216234768,-2.06297902043175
-1.1122268819835996,0.3976684589249641,-0.6738325067530655
-1.1122268819835996,0.3976684589249641,0.9031930907311863
-1.1122268819835996,0.3976684589249641,-1.685430962472374
-1.1122268819835996,0.3976684589249641,-2.06297902043175
-1.1122268819835996,-1.685430962472374,-0.6738325067530655
-1.1122268819835996,-1.685430962472374,0.9031930907311863
-1.1122268819835996,-1.685430962472374,-2.06297902043175
-1.1122268819835996,-2.06297902043175,-0.6738325067530655
-1.1122268819835996,-2.06297902043175,0.9031930907311863
-1.1122268819835996,-0.6738325067530655,0.9031930907311863
-2.224843973505194,-1.7108398216234768,-0.6738325067530655
-2.224843973505194,-1.7108398216234768,0.9031930907311863
-2.224843973505194,-1.7108398216234768,0.3976684589249641
-2.224843973505194,-1.7108398216234768,-1.685430962472374
-2.224843973505194,-1.7108398216234768,-2.06297902043175
-2.224843973505194,0.3976684589249641,-0.6738325067530655
-2.224843973505194,0.3976684589249641,0.9031930907311863
-2.224843973505194,0.3976684589249641,-1.685430962472374
-2.224843973505194,0.3976684589249641,-2.06297902043175
-2.224843973505194,-1.685430962472374,-0.6738325067530655
-2.224843973505194,-1.685430962472374,0.9031930907311863
-2.224843973505194,-1.685430962472374,-2.06297902043175
-2.224843973505194,-2.06297902043175,-0.6738325067530655
-2.224843973505194,-2.06297902043175,0.9031930907311863
-2.224843973505194,-0.6738325067530655,0.9031930907311863
-1.7108398216234768,-0.6738325067530655,0.9031930907311863
-1.7108398216234768,0.3976684589249641,-0.6738325067530655
-1.7108398216234768,0.3976684589249641,0.9031930907311863
-1.7108398216234768,0.3976684589249641,-1.685430962472374
-1.7108398216234768,0.3976684589249641,-2.06297902043175
-1.7108398216234768,-1.685430962472374,-0.6738325067530655
-1.7108398216234768,-1.685430962472374,0.9031930907311863
-1.7108398216234768,-1.685430962472374,-2.06297902043175
-1.7108398216234768,-2.06297902043175,-0.6738325067530655
-1.7108398216234768,-2.06297902043175,0.9031930907311863
0.3976684589249641,-0.6738325067530655,0.9031930907311863
0.3976684589249641,-1.685430962472374,-0.6738325067530655
0.3976684589249641,-1.685430962472374,0.9031930907311863
0.3976684589249641,-1.685430962472374,-2.06297902043175
0.3976684589249641,-2.06297902043175,-0.6738325067530655
0.3976684589249641,-2.06297902043175,0.9031930907311863
-1.685430962472374,-0.6738325067530655,0.9031930907311863
-1.685430962472374,-2.06297902043175,-0.6738325067530655
-1.685430962472374,-2.06297902043175,0.9031930907311863
-2.06297902043175,-0.6738325067530655,0.9031930907311863
