0,1,2
1.1611876629601854,3.2283413956929197,2.8138726774712235
1.1611876629601854,3.2283413956929197,5.315902635390101
1.1611876629601854,3.2283413956929197,0.015366453270796342
1.1611876629601854,3.2283413956929197,0.541829568975248
1.1611876629601854,3.2283413956929197,0.07718087419018246
1.1611876629601854,3.2283413956929197,1.7302596873074512
1.1611876629601854,3.2283413956929197,0.30059331265630024
1.1611876629601854,3.2283413956929197,-0.10992153200295351
1.1611876629601854,2.8138726774712235,5.315902635390101
1.1611876629601854,2.8138726774712235,0.015366453270796342
1.1611876629601854,2.8138726774712235,0.541829568975248
1.1611876629601854,2.8138726774712235,0.07718087419018246
1.1611876629601854,2.8138726774712235,1.7302596873074512
1.1611876629601854,2.8138726774712235,0.30059331265630024
1.1611876629601854,2.8138726774712235,-0.10992153200295351
1.1611876629601854,5.315902635390101,0.015366453270796342
1.1611876629601854,5.315902635390101,0.541829568975248
1.1611876629601854,5.315902635390101,0.07718087419018246
1.1611876629601854,5.315902635390101,1.7302596873074512
1.1611876629601854,5.315902635390101,0.30059331265630024
1.1611876629601854,5.315902635390101,-0.10992153200295351
1.1611876629601854,0.015366453270796342,0.30059331265630024
1.1611876629601854,0.015366453270796342,-0.10992153200295351
1.1611876629601854,0.015366453270796342,0.541829568975248
1.1611876629601854,0.015366453270796342,0.07718087419018246
1.1611876629601854,0.015366453270796342,1.7302596873074512
1.1611876629601854,0.541829568975248,0.30059331265630024
1.1611876629601854,0.541829568975248,-0.10992153200295351
1.1611876629601854,0.541829568975248,0.07718087419018246
1.1611876629601854,0.541829568975248,1.7302596873074512
1.1611876629601854,0.07718087419018246,0.30059331265630024
1.1611876629601854,0.07718087419018246,-0.10992153200295351
1.1611876629601854,0.07718087419018246,1.7302596873074512
1.1611876629601854,1.7302596873074512,0.30059331265630024
1.1611876629601854,1.7302596873074512,-0.10992153200295351
1.1611876629601854,0.30059331265630024,-0.10992153200295351
3.2283413956929197,2.8138726774712235,5.315902635390101
3.2283413956929197,2.8138726774712235,0.015366453270796342
3.2283413956929197,2.8138726774712235,0.541829568975248
3.2283413956929197,2.8138726774712235,0.07718087419018246
3.2283413956929197,2.8138726774712235,1.7302596873074512
3.2283413956929197,2.8138726774712235,0.30059331265630024
3.2283413956929197,2.8138726774712235,-0.10992153200295351
3.2283413956929197,5.315902635390101,0.015366453270796342
3.2283413956929197,5.315902635390101,0.541829568975248
3.2283413956929197,5.315902635390101,0.07718087419018246
3.2283413956929197,5.315902635390101,1.7302596873074512
3.2283413956929197,5.315902635390101,0.30059331265630024
3.2283413956929197,5.315902635390101,-0.10992153200295351
3.2283413956929197,0.015366453270796342,0.30059331265630024
3.2283413956929197,0.015366453270796342,-0.10992153200295351
3.2283413956929197,0.015366453270796342,0.541829568975248
3.2283413956929197,0.015366453270796342,0.07718087419018246
3.2283413956929197,0.015366453270796342,1.7302596873074512
3.2283413956929197,0.541829568975248,0.30059331265630024
3.2283413956929197,0.541829568975248,-0.10992153200295351
3.2283413956929197,0.541829568975248,0.07718087419018246
3.2283413956929197,0.541829568975248,1.7302596873074512
3.2283413956929197,0.07718087419018246,0.30059331265630024
3.2283413956929197,0.07718087419018246,-0.10992153200295351
3.2283413956929197,0.07718087419018246,1.7302596873074512
3.2283413956929197,1.7302596873074512,0.30059331265630024
3.2283413956929197,1.7302596873074512,-0.10992153200295351
3.2283413956929197,0.30059331265630024,-0.10992153200295351
2.8138726774712235,5.315902635390101,0.015366453270796342
2.8138726774712235,5.315902635390101,0.541829568975248
2.8138726774712235,5.315902635390101,0.07718087419018246
2.8138726774712235,5.315902635390101,1.7302596873074512
2.8138726774712235,5.315902635390101,0.30059331265630024
2.8138726774712235,5.315902635390101,-0.10992153200295351
2.8138726774712235,0.015366453270796342,0.30059331265630024
2.8138726774712235,0.015366453270796342,-0.10992153200295351
2.8138726774712235,0.015366453270796342,0.541829568975248
2.8138726774712235,0.015366453270796342,0.07718087419018246
2.8138726774712235,0.015366453270796342,1.7302596873074512
2.8138726774712235,0.541829568975248,0.30059331265630024
2.8138726774712235,0.541829568975248,-0.10992153200295351
2.8138726774712235,0.541829568975248,0.07718087419018246
2.8138726774712235,0.541829568975248,1.7302596873074512
2.8138726774712235,0.07718087419018246,0.30059331265630024
2.8138726774712235,0.07718087419018246,-0.10992153200295351
2.8138726774712235,0.07718087419018246,1.7302596873074512
2.8138726774712235,1.7302596873074512,0.30059331265630024
2.8138726774712235,1.7302596873074512,-0.10992153200295351
2.8138726774712235,0.30059331265630024,-0.10992153200295351
5.315902635390101,0.015366453270796342,0.30059331265630024
5.315902635390101,0.015366453270796342,-0.10992153200295351
5.315902635390101,0.015366453270796342,0.541829568975248
5.315902635390101,0.015366453270796342,0.07718087419018246
5.315902635390101,0.015366453270796342,1.7302596873074512
5.315902635390101,0.541829568975248,0.30059331265630024
5.315902635390101,0.541829568975248,-0.10992153200295351
5.315902635390101,0.541829568975248,0.07718087419018246
5.315902635390101,0.541829568975248,1.7302596873074512
5.315902635390101,0.07718087419018246,0.30059331265630024
5.315902635390101,0.07718087419018246,-0.10992153200295351
5.315902635390101,0.07718087419018246,1.7302596873074512
5.315902635390101,1.7302596873074512,0.30059331265630024
5.315902635390101,1.7302596873074512,-0.10992153200295351
5.315902635390101,0.30059331265630024,-0.10992153200295351
0.015366453270796342,0.30059331265630024,-0.10992153200295351
0.015366453270796342,0.541829568975248,0.30059331265630024
0.015366453270796342,0.541829568975248,-0.10992153200295351
0.015366453270796342,0.541829568975248,0.07718087419018246
0.015366453270796342,0.541829568975248,1.7302596873074512
0.015366453270796342,0.07718087419018246,0.30059331265630024
0.015366453270796342,0.07718087419018246,-0.10992153200295351
0.015366453270796342,0.07718087419018246,1.7302596873074512
0.015366453270796342,1.7302596873074512,0.30059331265630024
0.015366453270796342,1.7302596873074512,-0.10992153200295351
0.541829568975248,0.30059331265630024,-0.10992153200295351
0.541829568975248,0.07718087419018246,0.30059331265630024
0.541829568975248,0.07718087419018246,-0.10992153200295351
0.541829568975248,0.07718087419018246,1.7302596873074512
0.541829568975248,1.7302596873074512,0.30059331265630024
0.541829568975248,1.7302596873074512,-0.10992153200295351
0.07718087419018246,0.30059331265630024,-0.10992153200295351
0.07718087419018246,1.7302596873074512,0.30059331265630024
0.07718087419018246,1.7302596873074512,-0.10992153200295351
1.7302596873074512,0.30059331265630024,-0.10992153200295351
