0,1,2
2.28777311313317,-1.3109759272118882,-0.0905304572925482
2.28777311313317,-1.3109759272118882,-0.20867061839030485
2.28777311313317,-1.3109759272118882,1.2098784060139147
2.28777311313317,-1.3109759272118882,3.9144284480168063
2.28777311313317,-1.3109759272118882,-0.39768230418496847
2.28777311313317,-1.3109759272118882,1.3889504644099337
2.28777311313317,-1.3109759272118882,-1.2089899210316981
2.28777311313317,-1.3109759272118882,1.3519229081511888
2.28777311313317,-0.0905304572925482,-0.20867061839030485
2.28777311313317,-0.0905304572925482,1.2098784060139147
2.28777311313317,-0.0905304572925482,3.9144284480168063
2.28777311313317,-0.0905304572925482,-0.39768230418496847
2.28777311313317,-0.0905304572925482,1.3889504644099337
2.28777311313317,-0.0905304572925482,-1.2089899210316981
2.28777311313317,-0.0905304572925482,1.3519229081511888
2.28777311313317,-0.20867061839030485,1.2098784060139147
2.28777311313317,-0.20867061839030485,3.9144284480168063
2.28777311313317,-0.20867061839030485,-0.39768230418496847
2.28777311313317,-0.20867061839030485,1.3889504644099337
2.28777311313317,-0.20867061839030485,-1.2089899210316981
2.28777311313317,-0.20867061839030485,1.3519229081511888
2.28777311313317,1.2098784060139147,-1.2089899210316981
2.28777311313317,1.2098784060139147,1.3519229081511888
2.28777311313317,1.2098784060139147,3.9144284480168063
2.28777311313317,1.2098784060139147,-0.39768230418496847
2.28777311313317,1.2098784060139147,1.3889504644099337
2.28777311313317,3.9144284480168063,-1.2089899210316981
2.28777311313317,3.9144284480168063,1.3519229081511888
2.28777311313317,3.9144284480168063,-0.39768230418496847
2.28777311313317,3.9144284480168063,1.3889504644099337
2.28777311313317,-0.39768230418496847,-1.2089899210316981
2.28777311313317,-0.39768230418496847,1.3519229081511888
2.28777311313317,-0.39768230418496847,1.3889504644099337
2.28777311313317,1.3889504644099337,-1.2089899210316981
2.28777311313317,1.3889504644099337,1.3519229081511888
2.28777311313317,-1.2089899210316981,1.3519229081511888
-1.3109759272118882,-0.0905304572925482,-0.20867061839030485
-1.3109759272118882,-0.0905304572925482,1.2098784060139147
-1.3109759272118882,-0.0905304572925482,3.9144284480168063
-1.3109759272118882,-0.0905304572925482,-0.39768230418496847
-1.3109759272118882,-0.0905304572925482,1.3889504644099337
-1.3109759272118882,-0.0905304572925482,-1.2089899210316981
-1.3109759272118882,-0.0905304572925482,1.3519229081511888
-1.3109759272118882,-0.20867061839030485,1.2098784060139147
-1.3109759272118882,-0.20867061839030485,3.9144284480168063
-1.3109759272118882,-0.20867061839030485,-0.39768230418496847
-1.3109759272118882,-0.20867061839030485,1.3889504644099337
-1.3109759272118882,-0.20867061839030485,-1.2089899210316981
-1.3109759272118882,-0.20867061839030485,1.3519229081511888
-1.3109759272118882,1.2098784060139147,-1.2089899210316981
-1.3109759272118882,1.2098784060139147,1.3519229081511888
-1.3109759272118882,1.2098784060139147,3.9144284480168063
-1.3109759272118882,1.2098784060139147,-0.39768230418496847
-1.3109759272118882,1.2098784060139147,1.3889504644099337
-1.3109759272118882,3.9144284480168063,-1.2089899210316981
-1.3109759272118882,3.9144284480168063,1.3519229081511888
-1.3109759272118882,3.9144284480168063,-0.39768230418496847
-1.3109759272118882,3.9144284480168063,1.3889504644099337
-1.3109759272118882,-0.39768230418496847,-1.2089899210316981
-1.3109759272118882,-0.39768230418496847,1.3519229081511888
-1.3109759272118882,-0.39768230418496847,1.3889504644099337
-1.3109759272118882,1.3889504644099337,-1.2089899210316981
-1.3109759272118882,1.3889504644099337,1.3519229081511888
-1.3109759272118882,-1.2089899210316981,1.3519229081511888
-0.0905304572925482,-0.20867061839030485,1.2098784060139147
-0.0905304572925482,-0.20867061839030485,3.9144284480168063
-0.0905304572925482,-0.20867061839030485,-0.39768230418496847
-0.0905304572925482,-0.20867061839030485,1.3889504644099337
-0.0905304572925482,-0.20867061839030485,-1.2089899210316981
-0.0905304572925482,-0.20867061839030485,1.3519229081511888
-0.0905304572925482,1.2098784060139147,-1.2089899210316981
-0.0905304572925482,1.2098784060139147,1.3519229081511888
-0.0905304572925482,1.2098784060139147,3.9144284480168063
-0.0905304572925482,1.2098784060139147,-0.39768230418496847
-0.0905304572925482,1.2098784060139147,1.3889504644099337
-0.0905304572925482,3.9144284480168063,-1.2089899210316981
-0.0905304572925482,3.9144284480168063,1.3519229081511888
-0.0905304572925482,3.9144284480168063,-0.39768230418496847
-0.0905304572925482,3.9144284480168063,1.3889504644099337
-0.0905304572925482,-0.39768230418496847,-1.2089899210316981
-0.0905304572925482,-0.39768230418496847,1.3519229081511888
-0.0905304572925482,-0.39768230418496847,1.3889504644099337
-0.0905304572925482,1.3889504644099337,-1.2089899210316981
-0.0905304572925482,1.3889504644099337,1.3519229081511888
-0.0905304572925482,-1.2089899210316981,1.3519229081511888
-0.20867061839030485,1.2098784060139147,-1.2089899210316981
-0.20867061839030485,1.2098784060139147,1.3519229081511888
-0.20867061839030485,1.2098784060139147,3.9144284480168063
-0.20867061839030485,1.2098784060139147,-0.39768230418496847
-0.20867061839030485,1.2098784060139147,1.3889504644099337
-0.20867061839030485,3.9144284480168063,-1.2089899210316981
-0.20867061839030485,3.9144284480168063,1.3519229081511888
-0.20867061839030485,3.9144284480168063,-0.39768230418496847
-0.20867061839030485,3.9144284480168063,1.3889504644099337
-0.20867061839030485,-0.39768230418496847,-1.2089899210316981
-0.20867061839030485,-0.39768230418496847,1.3519229081511888
-0.20867061839030485,-0.39768230418496847,1.3889504644099337
-0.20867061839030485,1.3889504644099337,-1.2089899210316981
-0.20867061839030485,1.3889504644099337,1.3519229081511888
-0.20867061839030485,-1.2089899210316981,1.3519229081511888
1.2098784060139147,-1.2089899210316981,1.3519229081511888
1.2098784060139147,3.9144284480168063,-1.2089899210316981
1.2098784060139147,3.9144284480168063,1.3519229081511888
1.2098784060139147,3.9144284480168063,-0.39768230418496847
1.2098784060139147,3.9144284480168063,1.3889504644099337
1.2098784060139147,-0.39768230418496847,-1.2089899210316981
1.2098784060139147,-0.39768230418496847,1.3519229081511888
1.2098784060139147,-0.39768230418496847,1.3889504644099337
1.2098784060139147,1.3889504644099337,-1.2089899210316981
1.2098784060139147,1.3889504644099337,1.3519229081511888
3.9144284480168063,-1.2089899210316981,1.3519229081511888
3.9144284480168063,-0.39768230418496847,-1.2089899210316981
3.9144284480168063,-0.39768230418496847,1.3519229081511888
3.9144284480168063,-0.39768230418496847,1.3889504644099337
3.9144284480168063,1.3889504644099337,-1.2089899210316981
3.9144284480168063,1.3889504644099337,1.3519229081511888
-0.39768230418496847,-1.2089899210316981,1.3519229081511888
-0.39768230418496847,1.3889504644099337,-1.2089899210316981
-0.39768230418496847,1.3889504644099337,1.3519229081511888
1.3889504644099337,-1.2089899210316981,1.3519229081511888
