0,1,2
-0.9425795293152045,-0.5185902170565143,1.3533860423474964
-0.9425795293152045,-0.5185902170565143,0.9927764023364091
-0.9425795293152045,-0.5185902170565143,2.531504480803719
-0.9425795293152045,-0.5185902170565143,-1.1715770873208966
-0.9425795293152045,-0.5185902170565143,-1.4978435323429535
-0.9425795293152045,-0.5185902170565143,0.7479163410697394
-0.9425795293152045,-0.5185902170565143,1.2219705557102687
-0.9425795293152045,-0.5185902170565143,-1.4829489571173577
-0.9425795293152045,1.3533860423474964,0.9927764023364091
-0.9425795293152045,1.3533860423474964,2.531504480803719
-0.9425795293152045,1.3533860423474964,-1.1715770873208966
-0.9425795293152045,1.3533860423474964,-1.4978435323429535
-0.9425795293152045,1.3533860423474964,0.7479163410697394
-0.9425795293152045,1.3533860423474964,1.2219705557102687
-0.9425795293152045,1.3533860423474964,-1.4829489571173577
-0.9425795293152045,0.9927764023364091,2.531504480803719
-0.9425795293152045,0.9927764023364091,-1.1715770873208966
-0.9425795293152045,0.9927764023364091,-1.4978435323429535
-0.9425795293152045,0.9927764023364091,0.7479163410697394
-0.9425795293152045,0.9927764023364091,1.2219705557102687
-0.9425795293152045,0.9927764023364091,-1.4829489571173577
-0.9425795293152045,2.531504480803719,1.2219705557102687
-0.9425795293152045,2.531504480803719,-1.4829489571173577
-0.9425795293152045,2.531504480803719,-1.1715770873208966
-0.9425795293152045,2.531504480803719,-1.4978435323429535
-0.9425795293152045,2.531504480803719,0.7479163410697394
-0.9425795293152045,-1.1715770873208966,1.2219705557102687
-0.9425795293152045,-1.1715770873208966,-1.4829489571173577
-0.9425795293152045,-1.1715770873208966,-1.4978435323429535
-0.9425795293152045,-1.1715770873208966,0.7479163410697394
-0.9425795293152045,-1.4978435323429535,1.2219705557102687
-0.9425795293152045,-1.4978435323429535,-1.4829489571173577
-0.9425795293152045,-1.4978435323429535,0.7479163410697394
-0.9425795293152045,0.7479163410697394,1.2219705557102687
-0.9425795293152045,0.7479163410697394,-1.4829489571173577
-0.9425795293152045,1.2219705557102687,-1.4829489571173577
-0.5185902170565143,1.3533860423474964,0.9927764023364091
-0.5185902170565143,1.3533860423474964,2.531504480803719
-0.5185902170565143,1.3533860423474964,-1.1715770873208966
-0.5185902170565143,1.3533860423474964,-1.4978435323429535
-0.5185902170565143,1.3533860423474964,0.7479163410697394
-0.5185902170565143,1.3533860423474964,1.2219705557102687
-0.5185902170565143,1.3533860423474964,-1.4829489571173577
-0.5185902170565143,0.9927764023364091,2.531504480803719
-0.5185902170565143,0.9927764023364091,-1.1715770873208966
-0.5185902170565143,0.9927764023364091,-1.4978435323429535
-0.5185902170565143,0.9927764023364091,0.7479163410697394
-0.5185902170565143,0.9927764023364091,1.2219705557102687
-0.5185902170565143,0.9927764023364091,-1.4829489571173577
-0.5185902170565143,2.531504480803719,1.2219705557102687
-0.5185902170565143,2.531504480803719,-1.4829489571173577
-0.5185902170565143,2.531504480803719,-1.1715770873208966
-0.5185902170565143,2.531504480803719,-1.4978435323429535
-0.5185902170565143,2.531504480803719,0.7479163410697394
-0.5185902170565143,-1.1715770873208966,1.2219705557102687
-0.5185902170565143,-1.1715770873208966,-1.4829489571173577
-0.5185902170565143,-1.1715770873208966,-1.4978435323429535
-0.5185902170565143,-1.1715770873208966,0.7479163410697394
-0.5185902170565143,-1.4978435323429535,1.2219705557102687
-0.5185902170565143,-1.4978435323429535,-1.4829489571173577
-0.5185902170565143,-1.4978435323429535,0.7479163410697394
-0.5185902170565143,0.7479163410697394,1.2219705557102687
-0.5185902170565143,0.7479163410697394,-1.4829489571173577
-0.5185902170565143,1.2219705557102687,-1.4829489571173577
1.3533860423474964,0.9927764023364091,2.531504480803719
1.3533860423474964,0.9927764023364091,-1.1715770873208966
1.3533860423474964,0.9927764023364091,-1.4978435323429535
1.3533860423474964,0.9927764023364091,0.7479163410697394
1.3533860423474964,0.9927764023364091,1.2219705557102687
1.3533860423474964,0.9927764023364091,-1.4829489571173577
1.3533860423474964,2.531504480803719,1.2219705557102687
1.3533860423474964,2.531504480803719,-1.4829489571173577
1.3533860423474964,2.531504480803719,-1.1715770873208966
1.3533860423474964,2.531504480803719,-1.4978435323429535
1.3533860423474964,2.531504480803719,0.7479163410697394
1.3533860423474964,-1.1715770873208966,1.2219705557102687
1.3533860423474964,-1.1715770873208966,-1.4829489571173577
1.3533860423474964,-1.1715770873208966,-1.4978435323429535
1.3533860423474964,-1.1715770873208966,0.7479163410697394
1.3533860423474964,-1.4978435323429535,1.2219705557102687
1.3533860423474964,-1.4978435323429535,-1.4829489571173577
1.3533860423474964,-1.4978435323429535,0.7479163410697394
1.3533860423474964,0.7479163410697394,1.2219705557102687
1.3533860423474964,0.7479163410697394,-1.4829489571173577
1.3533860423474964,1.2219705557102687,-1.4829489571173577
0.9927764023364091,2.531504480803719,1.2219705557102687
0.9927764023364091,2.531504480803719,-1.4829489571173577
0.9927764023364091,2.531504480803719,-1.1715770873208966
0.9927764023364091,2.531504480803719,-1.4978435323429535
0.9927764023364091,2.531504480803719,0.7479163410697394
0.9927764023364091,-1.1715770873208966,1.2219705557102687
0.9927764023364091,-1.1715770873208966,-1.4829489571173577
0.9927764023364091,-1.1715770873208966,-1.4978435323429535
0.9927764023364091,-1.1715770873208966,0.7479163410697394
0.9927764023364091,-1.4978435323429535,1.2219705557102687
0.9927764023364091,-1.4978435323429535,-1.4829489571173577
0.9927764023364091,-1.4978435323429535,0.7479163410697394
0.9927764023364091,0.7479163410697394,1.2219705557102687
0.9927764023364091,0.7479163410697394,-1.4829489571173577
0.9927764023364091,1.2219705557102687,-1.4829489571173577
2.531504480803719,1.2219705557102687,-1.4829489571173577
2.531504480803719,-1.1715770873208966,1.2219705557102687
2.531504480803719,-1.1715770873208966,-1.4829489571173577
2.531504480803719,-1.1715770873208966,-1.4978435323429535
2.531504480803719,-1.1715770873208966,0.7479163410697394
2.531504480803719,-1.4978435323429535,1.2219705557102687
2.531504480803719,-1.4978435323429535,-1.4829489571173577
2.531504480803719,-1.4978435323429535,0.7479163410697394
2.531504480803719,0.7479163410697394,1.2219705557102687
2.531504480803719,0.7479163410697394,-1.4829489571173577
-1.1715770873208966,1.2219705557102687,-1.4829489571173577
-1.1715770873208966,-1.4978435323429535,1.2219705557102687
-1.1715770873208966,-1.4978435323429535,-1.4829489571173577
-1.1715770873208966,-1.4978435323429535,0.7479163410697394
-1.1715770873208966,0.7479163410697394,1.2219705557102687
-1.1715770873208966,0.7479163410697394,-1.4829489571173577
-1.4978435323429535,1.2219705557102687,-1.4829489571173577
-1.4978435323429535,0.7479163410697394,1.2219705557102687
-1.4978435323429535,0.7479163410697394,-1.4829489571173577
0.7479163410697394,1.2219705557102687,-1.4829489571173577
