0,1,2
-3.9788772513127486,0.2544096725686309,1.9951060479460963
-3.9788772513127486,0.2544096725686309,2.720794585965143
-3.9788772513127486,0.2544096725686309,-0.44770396789585654
-3.9788772513127486,0.2544096725686309,-1.166217380266497
-3.9788772513127486,0.2544096725686309,0.5004184315606528
-3.9788772513127486,0.2544096725686309,1.1628546896306187
-3.9788772513127486,0.2544096725686309,0.5486359563641316
-3.9788772513127486,0.2544096725686309,0.761082169237551
-3.9788772513127486,1.9951060479460963,2.720794585965143
-3.9788772513127486,1.9951060479460963,-0.44770396789585654
-3.9788772513127486,1.9951060479460963,-1.166217380266497
-3.9788772513127486,1.9951060479460963,0.5004184315606528
-3.9788772513127486,1.9951060479460963,1.1628546896306187
-3.9788772513127486,1.9951060479460963,0.5486359563641316
-3.9788772513127486,1.9951060479460963,0.761082169237551
-3.9788772513127486,2.720794585965143,-0.44770396789585654
-3.9788772513127486,2.720794585965143,-1.166217380266497
-3.9788772513127486,2.720794585965143,0.5004184315606528
-3.9788772513127486,2.720794585965143,1.1628546896306187
-3.9788772513127486,2.720794585965143,0.5486359563641316
-3.9788772513127486,2.720794585965143,0.761082169237551
-3.9788772513127486,-0.44770396789585654,0.5486359563641316
-3.9788772513127486,-0.44770396789585654,0.761082169237551
-3.9788772513127486,-0.44770396789585654,-1.166217380266497
-3.9788772513127486,-0.44770396789585654,0.5004184315606528
-3.9788772513127486,-0.44770396789585654,1.1628546896306187
-3.9788772513127486,-1.166217380266497,0.5486359563641316
-3.9788772513127486,-1.166217380266497,0.761082169237551
-3.9788772513127486,-1.166217380266497,0.5004184315606528
-3.9788772513127486,-1.166217380266497,1.1628546896306187
-3.9788772513127486,0.5004184315606528,0.5486359563641316
-3.9788772513127486,0.5004184315606528,0.761082169237551
-3.9788772513127486,0.5004184315606528,1.1628546896306187
-3.9788772513127486,1.1628546896306187,0.5486359563641316
-3.9788772513127486,1.1628546896306187,0.761082169237551
-3.9788772513127486,0.5486359563641316,0.761082169237551
0.2544096725686309,1.9951060479460963,2.720794585965143
0.2544096725686309,1.9951060479460963,-0.44770396789585654
0.2544096725686309,1.9951060479460963,-1.166217380266497
0.2544096725686309,1.9951060479460963,0.5004184315606528
0.2544096725686309,1.9951060479460963,1.1628546896306187
0.2544096725686309,1.9951060479460963,0.5486359563641316
0.2544096725686309,1.9951060479460963,0.761082169237551
0.2544096725686309,2.720794585965143,-0.44770396789585654
0.2544096725686309,2.720794585965143,-1.166217380266497
0.2544096725686309,2.720794585965143,0.5004184315606528
0.2544096725686309,2.720794585965143,1.1628546896306187
0.2544096725686309,2.720794585965143,0.5486359563641316
0.2544096725686309,2.720794585965143,0.761082169237551
0.2544096725686309,-0.44770396789585654,0.5486359563641316
0.2544096725686309,-0.44770396789585654,0.761082169237551
0.2544096725686309,-0.44770396789585654,-1.166217380266497
0.2544096725686309,-0.44770396789585654,0.5004184315606528
0.2544096725686309,-0.44770396789585654,1.1628546896306187
0.2544096725686309,-1.166217380266497,0.5486359563641316
0.2544096725686309,-1.166217380266497,0.761082169237551
0.2544096725686309,-1.166217380266497,0.5004184315606528
0.2544096725686309,-1.166217380266497,1.1628546896306187
0.2544096725686309,0.5004184315606528,0.5486359563641316
0.2544096725686309,0.5004184315606528,0.761082169237551
0.2544096725686309,0.5004184315606528,1.1628546896306187
0.2544096725686309,1.1628546896306187,0.5486359563641316
0.2544096725686309,1.1628546896306187,0.761082169237551
0.2544096725686309,0.5486359563641316,0.761082169237551
1.9951060479460963,2.720794585965143,-0.44770396789585654
1.9951060479460963,2.720794585965143,-1.166217380266497
1.9951060479460963,2.720794585965143,0.5004184315606528
1.9951060479460963,2.720794585965143,1.1628546896306187
1.9951060479460963,2.720794585965143,0.5486359563641316
1.9951060479460963,2.720794585965143,0.761082169237551
1.9951060479460963,-0.44770396789585654,0.5486359563641316
1.9951060479460963,-0.44770396789585654,0.761082169237551
1.9951060479460963,-0.44770396789585654,-1.166217380266497
1.9951060479460963,-0.44770396789585654,0.5004184315606528
1.9951060479460963,-0.44770396789585654,1.1628546896306187
1.9951060479460963,-1.166217380266497,0.5486359563641316
1.9951060479460963,-1.166217380266497,0.761082169237551
1.9951060479460963,-1.166217380266497,0.5004184315606528
1.9951060479460963,-1.166217380266497,1.1628546896306187
1.9951060479460963,0.5004184315606528,0.5486359563641316
1.9951060479460963,0.5004184315606528,0.761082169237551
1.9951060479460963,0.5004184315606528,1.1628546896306187
1.9951060479460963,1.1628546896306187,0.5486359563641316
1.9951060479460963,1.1628546896306187,0.761082169237551
1.9951060479460963,0.5486359563641316,0.761082169237551
2.720794585965143,-0.44770396789585654,0.5486359563641316
2.720794585965143,-0.44770396789585654,0.761082169237551
2.720794585965143,-0.44770396789585654,-1.166217380266497
2.720794585965143,-0.44770396789585654,0.5004184315606528
2.720794585965143,-0.44770396789585654,1.1628546896306187
2.720794585965143,-1.166217380266497,0.5486359563641316
2.720794585965143,-1.166217380266497,0.761082169237551
2.720794585965143,-1.166217380266497,0.5004184315606528
2.720794585965143,-1.166217380266497,1.1628546896306187
2.720794585965143,0.5004184315606528,0.5486359563641316
2.720794585965143,0.5004184315606528,0.761082169237551
2.720794585965143,0.5004184315606528,1.1628546896306187
2.720794585965143,1.1628546896306187,0.5486359563641316
2.720794585965143,1.1628546896306187,0.761082169237551
2.720794585965143,0.5486359563641316,0.761082169237551
-0.44770396789585654,0.5486359563641316,0.761082169237551
-0.44770396789585654,-1.166217380266497,0.5486359563641316
-0.44770396789585654,-1.166217380266497,0.761082169237551
-0.44770396789585654,-1.166217380266497,0.5004184315606528
-0.44770396789585654,-1.166217380266497,1.1628546896306187
-0.44770396789585654,0.5004184315606528,0.5486359563641316
-0.44770396789585654,0.5004184315606528,0.761082169237551
-0.44770396789585654,0.5004184315606528,1.1628546896306187
-0.44770396789585654,1.1628546896306187,0.5486359563641316
-0.44770396789585654,1.1628546896306187,0.761082169237551
-1.166217380266497,0.5486359563641316,0.761082169237551
-1.166217380266497,0.5004184315606528,0.5486359563641316
-1.166217380266497,0.5004184315606528,0.761082169237551
-1.166217380266497,0.5004184315606528,1.1628546896306187
-1.166217380266497,1.1628546896306187,0.5486359563641316
-1.166217380266497,1.1628546896306187,0.761082169237551
0.5004184315606528,0.5486359563641316,0.761082169237551
0.5004184315606528,1.1628546896306187,0.5486359563641316
0.5004184315606528,1.1628546896306187,0.761082169237551
1.1628546896306187,0.5486359563641316,0.761082169237551
