0,1,2
0.13879209977413107,0.27836590081652596,0.6871869352469405
0.13879209977413107,0.27836590081652596,-1.6210642443837753
0.13879209977413107,0.27836590081652596,0.6134771039284928
0.13879209977413107,0.27836590081652596,0.09044925500844034
0.13879209977413107,0.27836590081652596,-0.03468360162382062
0.13879209977413107,0.27836590081652596,-0.16534138058766368
0.13879209977413107,0.27836590081652596,2.195907793072447
0.13879209977413107,0.27836590081652596,1.083986482301607
0.13879209977413107,0.6871869352469405,-1.6210642443837753
0.13879209977413107,0.6871869352469405,0.6134771039284928
0.13879209977413107,0.6871869352469405,0.09044925500844034
0.13879209977413107,0.6871869352469405,-0.03468360162382062
0.13879209977413107,0.6871869352469405,-0.16534138058766368
0.13879209977413107,0.6871869352469405,2.195907793072447
0.13879209977413107,0.6871869352469405,1.083986482301607
0.13879209977413107,-1.6210642443837753,0.6134771039284928
0.13879209977413107,-1.6210642443837753,0.09044925500844034
0.13879209977413107,-1.6210642443837753,-0.03468360162382062
0.13879209977413107,-1.6210642443837753,-0.16534138058766368
0.13879209977413107,-1.6210642443837753,2.195907793072447
0.13879209977413107,-1.6210642443837753,1.083986482301607
0.13879209977413107,0.6134771039284928,2.195907793072447
0.13879209977413107,0.6134771039284928,1.083986482301607
0.13879209977413107,0.6134771039284928,0.09044925500844034
0.13879209977413107,0.6134771039284928,-0.03468360162382062
0.13879209977413107,0.6134771039284928,-0.16534138058766368
0.13879209977413107,0.09044925500844034,2.195907793072447
0.13879209977413107,0.09044925500844034,1.083986482301607
0.13879209977413107,0.09044925500844034,-0.03468360162382062
0.13879209977413107,0.09044925500844034,-0.16534138058766368
0.13879209977413107,-0.03468360162382062,2.195907793072447
0.13879209977413107,-0.03468360162382062,1.083986482301607
0.13879209977413107,-0.03468360162382062,-0.16534138058766368
0.13879209977413107,-0.16534138058766368,2.195907793072447
0.13879209977413107,-0.16534138058766368,1.083986482301607
0.13879209977413107,2.195907793072447,1.083986482301607
0.27836590081652596,0.6871869352469405,-1.6210642443837753
0.27836590081652596,0.6871869352469405,0.6134771039284928
0.27836590081652596,0.6871869352469405,0.09044925500844034
0.27836590081652596,0.6871869352469405,-0.03468360162382062
0.27836590081652596,0.6871869352469405,-0.16534138058766368
0.27836590081652596,0.6871869352469405,2.195907793072447
0.27836590081652596,0.6871869352469405,1.083986482301607
0.27836590081652596,-1.6210642443837753,0.6134771039284928
0.27836590081652596,-1.6210642443837753,0.09044925500844034
0.27836590081652596,-1.6210642443837753,-0.03468360162382062
0.27836590081652596,-1.6210642443837753,-0.16534138058766368
0.27836590081652596,-1.6210642443837753,2.195907793072447
0.27836590081652596,-1.6210642443837753,1.083986482301607
0.27836590081652596,0.6134771039284928,2.195907793072447
0.27836590081652596,0.6134771039284928,1.083986482301607
0.27836590081652596,0.6134771039284928,0.09044925500844034
0.27836590081652596,0.6134771039284928,-0.03468360162382062
0.27836590081652596,0.6134771039284928,-0.16534138058766368
0.27836590081652596,0.09044925500844034,2.195907793072447
0.27836590081652596,0.09044925500844034,1.083986482301607
0.27836590081652596,0.09044925500844034,-0.03468360162382062
0.27836590081652596,0.09044925500844034,-0.16534138058766368
0.27836590081652596,-0.03468360162382062,2.195907793072447
0.27836590081652596,-0.03468360162382062,1.083986482301607
0.27836590081652596,-0.03468360162382062,-0.16534138058766368
0.27836590081652596,-0.16534138058766368,2.195907793072447
0.27836590081652596,-0.16534138058766368,1.083986482301607
0.27836590081652596,2.195907793072447,1.083986482301607
0.6871869352469405,-1.6210642443837753,0.6134771039284928
0.6871869352469405,-1.6210642443837753,0.09044925500844034
0.6871869352469405,-1.6210642443837753,-0.03468360162382062
0.6871869352469405,-1.6210642443837753,-0.16534138058766368
0.6871869352469405,-1.6210642443837753,2.195907793072447
0.6871869352469405,-1.6210642443837753,1.083986482301607
0.6871869352469405,0.6134771039284928,2.195907793072447
0.6871869352469405,0.6134771039284928,1.083986482301607
0.6871869352469405,0.6134771039284928,0.09044925500844034
0.6871869352469405,0.6134771039284928,-0.03468360162382062
0.6871869352469405,0.6134771039284928,-0.16534138058766368
0.6871869352469405,0.09044925500844034,2.195907793072447
0.6871869352469405,0.09044925500844034,1.083986482301607
0.6871869352469405,0.09044925500844034,-0.03468360162382062
0.6871869352469405,0.09044925500844034,-0.16534138058766368
0.6871869352469405,-0.03468360162382062,2.195907793072447
0.6871869352469405,-0.03468360162382062,1.083986482301607
0.6871869352469405,-0.03468360162382062,-0.16534138058766368
0.6871869352469405,-0.16534138058766368,2.195907793072447
0.6871869352469405,-0.16534138058766368,1.083986482301607
0.6871869352469405,2.195907793072447,1.083986482301607
-1.6210642443837753,0.6134771039284928,2.195907793072447
-1.6210642443837753,0.6134771039284928,1.083986482301607
-1.6210642443837753,0.6134771039284928,0.09044925500844034
-1.6210642443837753,0.6134771039284928,-0.03468360162382062
-1.6210642443837753,0.6134771039284928,-0.16534138058766368
-1.6210642443837753,0.09044925500844034,2.195907793072447
-1.6210642443837753,0.09044925500844034,1.083986482301607
-1.6210642443837753,0.09044925500844034,-0.03468360162382062
-1.6210642443837753,0.09044925500844034,-0.16534138058766368
-1.6210642443837753,-0.03468360162382062,2.195907793072447
-1.6210642443837753,-0.03468360162382062,1.083986482301607
-1.6210642443837753,-0.03468360162382062,-0.16534138058766368
-1.6210642443837753,-0.16534138058766368,2.195907793072447
-1.6210642443837753,-0.16534138058766368,1.083986482301607
-1.6210642443837753,2.195907793072447,1.083986482301607
0.6134771039284928,2.195907793072447,1.083986482301607
0.6134771039284928,0.09044925500844034,2.195907793072447
0.6134771039284928,0.09044925500844034,1.083986482301607
0.6134771039284928,0.09044925500844034,-0.03468360162382062
0.6134771039284928,0.09044925500844034,-0.16534138058766368
0.6134771039284928,-0.03468360162382062,2.195907793072447
0.6134771039284928,-0.03468360162382062,1.083986482301607
0.6134771039284928,-0.03468360162382062,-0.16534138058766368
0.6134771039284928,-0.16534138058766368,2.195907793072447
0.6134771039284928,-0.16534138058766368,1.083986482301607
0.09044925500844034,2.195907793072447,1.083986482301607
0.09044925500844034,-0.03468360162382062,2.195907793072447
0.09044925500844034,-0.03468360162382062,1.083986482301607
0.09044925500844034,-0.03468360162382062,-0.16534138058766368
0.09044925500844034,-0.16534138058766368,2.195907793072447
0.09044925500844034,-0.16534138058766368,1.083986482301607
-0.03468360162382062,2.195907793072447,1.083986482301607
-0.03468360162382062,-0.16534138058766368,2.195907793072447
-0.03468360162382062,-0.16534138058766368,1.083986482301607
-0.16534138058766368,2.195907793072447,1.083986482301607
