0,1,2
-2.5588611360390403,-2.4236097830191765,-2.3971252947294035
-2.5588611360390403,-2.4236097830191765,-0.14428395516420897
-2.5588611360390403,-2.4236097830191765,3.8353534059098786
-2.5588611360390403,-2.4236097830191765,-0.10071452798406189
-2.5588611360390403,-2.4236097830191765,-1.5001835362160982
-2.5588611360390403,-2.4236097830191765,-5.412711118047712
-2.5588611360390403,-2.4236097830191765,-2.670875424985176
-2.5588611360390403,-2.4236097830191765,-1.8566601523348605
-2.5588611360390403,-2.3971252947294035,-0.14428395516420897
-2.5588611360390403,-2.3971252947294035,3.8353534059098786
-2.5588611360390403,-2.3971252947294035,-0.10071452798406189
-2.5588611360390403,-2.3971252947294035,-1.5001835362160982
-2.5588611360390403,-2.3971252947294035,-5.412711118047712
-2.5588611360390403,-2.3971252947294035,-2.670875424985176
-2.5588611360390403,-2.3971252947294035,-1.8566601523348605
-2.5588611360390403,-0.14428395516420897,3.8353534059098786
-2.5588611360390403,-0.14428395516420897,-0.10071452798406189
-2.5588611360390403,-0.14428395516420897,-1.5001835362160982
-2.5588611360390403,-0.14428395516420897,-5.412711118047712
-2.5588611360390403,-0.14428395516420897,-2.670875424985176
-2.5588611360390403,-0.14428395516420897,-1.8566601523348605
-2.5588611360390403,3.8353534059098786,-2.670875424985176
-2.5588611360390403,3.8353534059098786,-1.8566601523348605
-2.5588611360390403,3.8353534059098786,-0.10071452798406189
-2.5588611360390403,3.8353534059098786,-1.5001835362160982
-2.5588611360390403,3.8353534059098786,-5.412711118047712
-2.5588611360390403,-0.10071452798406189,-2.670875424985176
-2.5588611360390403,-0.10071452798406189,-1.8566601523348605
-2.5588611360390403,-0.10071452798406189,-1.5001835362160982
-2.5588611360390403,-0.10071452798406189,-5.412711118047712
-2.5588611360390403,-1.5001835362160982,-2.670875424985176
-2.5588611360390403,-1.5001835362160982,-1.8566601523348605
-2.5588611360390403,-1.5001835362160982,-5.412711118047712
-2.5588611360390403,-5.412711118047712,-2.670875424985176
-2.5588611360390403,-5.412711118047712,-1.8566601523348605
-2.5588611360390403,-2.670875424985176,-1.8566601523348605
-2.4236097830191765,-2.3971252947294035,-0.14428395516420897
-2.4236097830191765,-2.3971252947294035,3.8353534059098786
-2.4236097830191765,-2.3971252947294035,-0.10071452798406189
-2.4236097830191765,-2.3971252947294035,-1.5001835362160982
-2.4236097830191765,-2.3971252947294035,-5.412711118047712
-2.4236097830191765,-2.3971252947294035,-2.670875424985176
-2.4236097830191765,-2.3971252947294035,-1.8566601523348605
-2.4236097830191765,-0.14428395516420897,3.8353534059098786
-2.4236097830191765,-0.14428395516420897,-0.10071452798406189
-2.4236097830191765,-0.14428395516420897,-1.5001835362160982
-2.4236097830191765,-0.14428395516420897,-5.412711118047712
-2.4236097830191765,-0.14428395516420897,-2.670875424985176
-2.4236097830191765,-0.14428395516420897,-1.8566601523348605
-2.4236097830191765,3.8353534059098786,-2.670875424985176
-2.4236097830191765,3.8353534059098786,-1.8566601523348605
-2.4236097830191765,3.8353534059098786,-0.10071452798406189
-2.4236097830191765,3.8353534059098786,-1.5001835362160982
-2.4236097830191765,3.8353534059098786,-5.412711118047712
-2.4236097830191765,-0.10071452798406189,-2.670875424985176
-2.4236097830191765,-0.10071452798406189,-1.8566601523348605
-2.4236097830191765,-0.10071452798406189,-1.5001835362160982
-2.4236097830191765,-0.10071452798406189,-5.412711118047712
-2.4236097830191765,-1.5001835362160982,-2.670875424985176
-2.4236097830191765,-1.5001835362160982,-1.8566601523348605
-2.4236097830191765,-1.5001835362160982,-5.412711118047712
-2.4236097830191765,-5.412711118047712,-2.670875424985176
-2.4236097830191765,-5.412711118047712,-1.8566601523348605
-2.4236097830191765,-2.670875424985176,-1.8566601523348605
-2.3971252947294035,-0.14428395516420897,3.8353534059098786
-2.3971252947294035,-0.14428395516420897,-0.10071452798406189
-2.3971252947294035,-0.14428395516420897,-1.5001835362160982
-2.3971252947294035,-0.14428395516420897,-5.412711118047712
-2.3971252947294035,-0.14428395516420897,-2.670875424985176
-2.3971252947294035,-0.14428395516420897,-1.8566601523348605
-2.3971252947294035,3.8353534059098786,-2.670875424985176
-2.3971252947294035,3.8353534059098786,-1.8566601523348605
-2.3971252947294035,3.8353534059098786,-0.10071452798406189
-2.3971252947294035,3.8353534059098786,-1.5001835362160982
-2.3971252947294035,3.8353534059098786,-5.412711118047712
-2.3971252947294035,-0.10071452798406189,-2.670875424985176
-2.3971252947294035,-0.10071452798406189,-1.8566601523348605
-2.3971252947294035,-0.10071452798406189,-1.5001835362160982
-2.3971252947294035,-0.10071452798406189,-5.412711118047712
-2.3971252947294035,-1.5001835362160982,-2.670875424985176
-2.3971252947294035,-1.5001835362160982,-1.8566601523348605
-2.3971252947294035,-1.5001835362160982,-5.412711118047712
-2.3971252947294035,-5.412711118047712,-2.670875424985176
-2.3971252947294035,-5.412711118047712,-1.8566601523348605
-2.3971252947294035,-2.670875424985176,-1.8566601523348605
-0.14428395516420897,3.8353534059098786,-2.670875424985176
-0.14428395516420897,3.8353534059098786,-1.8566601523348605
-0.14428395516420897,3.8353534059098786,-0.10071452798406189
-0.14428395516420897,3.8353534059098786,-1.5001835362160982
-0.14428395516420897,3.8353534059098786,-5.412711118047712
-0.14428395516420897,-0.10071452798406189,-2.670875424985176
-0.14428395516420897,-0.10071452798406189,-1.8566601523348605
-0.14428395516420897,-0.10071452798406189,-1.5001835362160982
-0.14428395516420897,-0.10071452798406189,-5.412711118047712
-0.14428395516420897,-1.5001835362160982,-2.670875424985176
-0.14428395516420897,-1.5001835362160982,-1.8566601523348605
-0.14428395516420897,-1.5001835362160982,-5.412711118047712
-0.14428395516420897,-5.412711118047712,-2.670875424985176
-0.14428395516420897,-5.412711118047712,-1.8566601523348605
-0.14428395516420897,-2.670875424985176,-1.8566601523348605
3.8353534059098786,-2.670875424985176,-1.8566601523348605
3.8353534059098786,-0.10071452798406189,-2.670875424985176
3.8353534059098786,-0.10071452798406189,-1.8566601523348605
3.8353534059098786,-0.10071452798406189,-1.5001835362160982
3.8353534059098786,-0.10071452798406189,-5.412711118047712
3.8353534059098786,-1.5001835362160982,-2.670875424985176
3.8353534059098786,-1.5001835362160982,-1.8566601523348605
3.8353534059098786,-1.5001835362160982,-5.412711118047712
3.8353534059098786,-5.412711118047712,-2.670875424985176
3.8353534059098786,-5.412711118047712,-1.8566601523348605
-0.10071452798406189,-2.670875424985176,-1.8566601523348605
-0.10071452798406189,-1.5001835362160982,-2.670875424985176
-0.10071452798406189,-1.5001835362160982,-1.8566601523348605
-0.10071452798406189,-1.5001835362160982,-5.412711118047712
-0.10071452798406189,-5.412711118047712,-2.670875424985176
-0.10071452798406189,-5.412711118047712,-1.8566601523348605
-1.5001835362160982,-2.670875424985176,-1.8566601523348605
-1.5001835362160982,-5.412711118047712,-2.670875424985176
-1.5001835362160982,-5.412711118047712,-1.8566601523348605
-5.412711118047712,-2.670875424985176,-1.8566601523348605
