0,1,2
-1.4166755910686049,1.961589517377989,-0.3833238158776675
-1.4166755910686049,1.961589517377989,2.384194755594043
-1.4166755910686049,1.961589517377989,3.925638725448294
-1.4166755910686049,1.961589517377989,0.49261555915487854
-1.4166755910686049,1.961589517377989,1.395479805832706
-1.4166755910686049,1.961589517377989,1.3861527835703562
-1.4166755910686049,1.961589517377989,-2.2446722749194823
-1.4166755910686049,1.961589517377989,3.006026624336
-1.4166755910686049,-0.3833238158776675,2.384194755594043
-1.4166755910686049,-0.3833238158776675,3.925638725448294
-1.4166755910686049,-0.3833238158776675,0.49261555915487854
-1.4166755910686049,-0.3833238158776675,1.395479805832706
-1.4166755910686049,-0.3833238158776675,1.3861527835703562
-1.4166755910686049,-0.3833238158776675,-2.2446722749194823
-1.4166755910686049,-0.3833238158776675,3.006026624336
-1.4166755910686049,2.384194755594043,3.925638725448294
-1.4166755910686049,2.384194755594043,0.49261555915487854
-1.4166755910686049,2.384194755594043,1.395479805832706
-1.4166755910686049,2.384194755594043,1.3861527835703562
-1.4166755910686049,2.384194755594043,-2.2446722749194823
-1.4166755910686049,2.384194755594043,3.006026624336
-1.4166755910686049,3.925638725448294,-2.2446722749194823
-1.4166755910686049,3.925638725448294,3.006026624336
-1.4166755910686049,3.925638725448294,0.49261555915487854
-1.4166755910686049,3.925638725448294,1.395479805832706
-1.4166755910686049,3.925638725448294,1.3861527835703562
-1.4166755910686049,0.49261555915487854,-2.2446722749194823
-1.4166755910686049,0.49261555915487854,3.006026624336
-1.4166755910686049,0.49261555915487854,1.395479805832706
-1.4166755910686049,0.49261555915487854,1.3861527835703562
-1.4166755910686049,1.395479805832706,-2.2446722749194823
-1.4166755910686049,1.395479805832706,3.006026624336
-1.4166755910686049,1.395479805832706,1.3861527835703562
-1.4166755910686049,1.3861527835703562,-2.2446722749194823
-1.4166755910686049,1.3861527835703562,3.006026624336
-1.4166755910686049,-2.2446722749194823,3.006026624336
1.961589517377989,-0.3833238158776675,2.384194755594043
1.961589517377989,-0.3833238158776675,3.925638725448294
1.961589517377989,-0.3833238158776675,0.49261555915487854
1.961589517377989,-0.3833238158776675,1.395479805832706
1.961589517377989,-0.3833238158776675,1.3861527835703562
1.961589517377989,-0.3833238158776675,-2.2446722749194823
1.961589517377989,-0.3833238158776675,3.006026624336
1.961589517377989,2.384194755594043,3.925638725448294
1.961589517377989,2.384194755594043,0.49261555915487854
1.961589517377989,2.384194755594043,1.395479805832706
1.961589517377989,2.384194755594043,1.3861527835703562
1.961589517377989,2.384194755594043,-2.2446722749194823
1.961589517377989,2.384194755594043,3.006026624336
1.961589517377989,3.925638725448294,-2.2446722749194823
1.961589517377989,3.925638725448294,3.006026624336
1.961589517377989,3.925638725448294,0.49261555915487854
1.961589517377989,3.925638725448294,1.395479805832706
1.961589517377989,3.925638725448294,1.3861527835703562
1.961589517377989,0.49261555915487854,-2.2446722749194823
1.961589517377989,0.49261555915487854,3.006026624336
1.961589517377989,0.49261555915487854,1.395479805832706
1.961589517377989,0.49261555915487854,1.3861527835703562
1.961589517377989,1.395479805832706,-2.2446722749194823
1.961589517377989,1.395479805832706,3.006026624336
1.961589517377989,1.395479805832706,1.3861527835703562
1.961589517377989,1.3861527835703562,-2.2446722749194823
1.961589517377989,1.3861527835703562,3.006026624336
1.961589517377989,-2.2446722749194823,3.006026624336
-0.3833238158776675,2.384194755594043,3.925638725448294
-0.3833238158776675,2.384194755594043,0.49261555915487854
-0.3833238158776675,2.384194755594043,1.395479805832706
-0.3833238158776675,2.384194755594043,1.3861527835703562
-0.3833238158776675,2.384194755594043,-2.2446722749194823
-0.3833238158776675,2.384194755594043,3.006026624336
-0.3833238158776675,3.925638725448294,-2.2446722749194823
-0.3833238158776675,3.925638725448294,3.006026624336
-0.3833238158776675,3.925638725448294,0.49261555915487854
-0.3833238158776675,3.925638725448294,1.395479805832706
-0.3833238158776675,3.925638725448294,1.3861527835703562
-0.3833238158776675,0.49261555915487854,-2.2446722749194823
-0.3833238158776675,0.49261555915487854,3.006026624336
-0.3833238158776675,0.49261555915487854,1.395479805832706
-0.3833238158776675,0.49261555915487854,1.3861527835703562
-0.3833238158776675,1.395479805832706,-2.2446722749194823
-0.3833238158776675,1.395479805832706,3.006026624336
-0.3833238158776675,1.395479805832706,1.3861527835703562
-0.3833238158776675,1.3861527835703562,-2.2446722749194823
-0.3833238158776675,1.3861527835703562,3.006026624336
-0.3833238158776675,-2.2446722749194823,3.006026624336
2.384194755594043,3.925638725448294,-2.2446722749194823
2.384194755594043,3.925638725448294,3.006026624336
2.384194755594043,3.925638725448294,0.49261555915487854
2.384194755594043,3.925638725448294,1.395479805832706
2.384194755594043,3.925638725448294,1.3861527835703562
2.384194755594043,0.49261555915487854,-2.2446722749194823
2.384194755594043,0.49261555915487854,3.006026624336
2.384194755594043,0.49261555915487854,1.395479805832706
2.384194755594043,0.49261555915487854,1.3861527835703562
2.384194755594043,1.395479805832706,-2.2446722749194823
2.384194755594043,1.395479805832706,3.006026624336
2.384194755594043,1.395479805832706,1.3861527835703562
2.384194755594043,1.3861527835703562,-2.2446722749194823
2.384194755594043,1.3861527835703562,3.006026624336
2.384194755594043,-2.2446722749194823,3.006026624336
3.925638725448294,-2.2446722749194823,3.006026624336
3.925638725448294,0.49261555915487854,-2.2446722749194823
3.925638725448294,0.49261555915487854,3.006026624336
3.925638725448294,0.49261555915487854,1.395479805832706
3.925638725448294,0.49261555915487854,1.3861527835703562
3.925638725448294,1.395479805832706,-2.2446722749194823
3.925638725448294,1.395479805832706,3.006026624336
3.925638725448294,1.395479805832706,1.3861527835703562
3.925638725448294,1.3861527835703562,-2.2446722749194823
3.925638725448294,1.3861527835703562,3.006026624336
0.49261555915487854,-2.2446722749194823,3.006026624336
0.49261555915487854,1.395479805832706,-2.2446722749194823
0.49261555915487854,1.395479805832706,3.006026624336
0.49261555915487854,1.395479805832706,1.3861527835703562
0.49261555915487854,1.3861527835703562,-2.2446722749194823
0.49261555915487854,1.3861527835703562,3.006026624336
1.395479805832706,-2.2446722749194823,3.006026624336
1.395479805832706,1.3861527835703562,-2.2446722749194823
1.395479805832706,1.3861527835703562,3.006026624336
1.3861527835703562,-2.2446722749194823,3.006026624336
